ncols         422
nrows         38
xllcorner     -85.0833333333
yllcorner     -43.8333333333
cellsize      0.083333333333333
NODATA_value  -9999
-9999 -3787 -3705 -4009 -4109 -3894 -3783 -3963 -4184 -4194 -4136 -4236 -4059 -3946 -3954 -4130 -4210 -4094 -4045 -4049 -3948 -3953 -3993 -4096 -4227 -4259 -4271 -4378 -4372 -4266 -4162 -4070 -4117 -4185 -4149 -4026 -3799 -3759 -3853 -3963 -3924 -3832 -3821 -3910 -4010 -4081 -4077 -4226 -4515 -4492 -4248 -4212 -4077 -3927 -3763 -3531 -3358 -3200 -3199 -3233 -3294 -3376 -3277 -3343 -3551 -3644 -3825 -3905 -3917 -4034 -4012 -3714 -3549 -3620 -3626 -3511 -3458 -3503 -3423 -3324 -3362 -3376 -3503 -3600 -3468 -3507 -3586 -3658 -3642 -3709 -3599 -3496 -3630 -3746 -3767 -3767 -3778 -3830 -3829 -3766 -3742 -3771 -3782 -3775 -3784 -3772 -3794 -3828 -3844 -3868 -3889 -3902 -3915 -3906 -3929 -3968 -3999 -3996 -4060 -3764 -3113 -2604 -2155 -1801 -1423 -1246 -1166 -953 -717 -557 -202 -169 -159 -135 -70 -9999 -9999 -9999 -9999 -9999 -9999 -9999 -9999 -9999 -9999 -9999 -9999 -9999 -9999 -9999 -9999 -9999 -9999 -9999 -9999 -9999 -9999 -9999 -9999 -9999 -9999 -9999 -9999 -9999 -9999 -9999 -9999 -9999 -9999 -9999 -9999 -9999 -9999 -9999 -9999 -9999 -9999 -9999 -9999 -9999 -9999 -9999 -9999 -9999 -9999 -9999 -9999 -9999 -9999 -9999 -9999 -9999 -9999 -9999 -9999 -9999 -9999 -9999 -9999 -9999 -9999 -9999 -9999 -9999 -9999 -9999 -9999 -9999 -9999 -9999 -9999 -9999 -9999 -9999 -9999 -9999 -9999 -9999 -9999 -9999 -9999 -9999 -9999 -9999 -9999 -9999 -9999 -9999 -9999 -9999 -9999 -9999 -9999 -9999 -9999 -9999 -9999 -9999 -9999 -9999 -9999 17 17 -9999 -9999 -9999 -9999 -9999 -9999 -9999 -9999 -9999 -9999 -9999 -9999 -9999 -9999 -9999 -9999 -9999 -9999 -9999 -9999 -9999 -9999 -9999 -9999 -9999 -9999 -9999 -9999 -9999 -9999 5 -6 -10 -17 -27 -31 -34 -32 -33 -36 -34 -38 -43 -46 -45 -48 -44 -44 -41 -56 -53 -55 -58 -59 -59 -68 -61 -71 -74 -71 -68 -65 -82 -74 -73 -73 -84 -78 -96 -86 -83 -81 -114 -117 -115 -109 -125 -125 -109 -94 -90 -91 -92 -90 -94 -94 -93 -94 -96 -101 -100 -94 -97 -103 -105 -130 -146 -380 -756 -959 -1091 -1161 -1268 -1316 -1317 -1374 -1440 -1476 -1477 -1599 -1786 -1914 -2028 -2263 -2589 -2856 -3139 -3414 -3628 -3887 -4083 -4235 -4334 -4470 -4516 -4592 -4689 -4731 -4786 -4855 -4972 -5108 -5114 -5043 -5109 -5265 -5283 -5120 -5124 -5197 -5235 -5316 -5415 -5451 -5413 -5431 -5464 -5415 -5418 -5403 -5405 -5475 -5520 -5579 -5646 -5579 -5608 -5609 -5539 -5502 -5512 -5498 -5482 -5485 -5452 -5438 -5453 -5481 -5506 -5500 -5487 -5490 -5482 -5479 -5491 -5490 -5482 -5469 -9999
-9999 -3915 -4084 -4411 -4482 -4296 -4061 -4014 -4071 -4061 -3902 -3820 -4036 -4148 -4245 -4303 -4158 -3990 -4049 -3892 -3926 -3981 -4049 -4111 -4076 -4041 -3955 -3850 -3746 -3762 -3772 -3645 -3687 -3804 -3845 -3866 -3887 -3931 -4036 -4021 -3933 -4040 -4098 -4091 -4002 -3893 -3837 -3824 -3905 -3711 -3452 -3404 -3404 -3422 -3421 -3284 -3271 -3410 -3488 -3543 -3635 -3792 -3787 -3825 -3910 -3977 -3930 -3872 -3905 -3872 -3951 -3703 -3517 -3452 -3497 -3515 -3434 -3329 -3141 -3167 -3355 -3495 -3597 -3663 -3556 -3560 -3596 -3398 -3495 -3684 -3623 -3612 -3728 -3660 -3752 -3805 -3884 -3873 -3784 -3766 -3778 -3779 -3787 -3789 -3789 -3792 -3802 -3830 -3847 -3854 -3877 -3889 -3893 -3887 -3888 -3903 -3955 -3956 -4039 -3767 -2873 -2474 -2094 -1778 -1350 -1129 -871 -745 -560 -442 -181 -172 -157 -112 22 -9999 -9999 -9999 -9999 -9999 -9999 -9999 -9999 -9999 -9999 -9999 -9999 -9999 -9999 -9999 -9999 -9999 -9999 -9999 -9999 -9999 -9999 -9999 -9999 -9999 -9999 -9999 -9999 -9999 -9999 -9999 -9999 -9999 -9999 -9999 -9999 -9999 -9999 -9999 -9999 -9999 -9999 -9999 -9999 -9999 -9999 -9999 -9999 -9999 -9999 -9999 -9999 -9999 -9999 -9999 -9999 -9999 -9999 -9999 -9999 -9999 -9999 -9999 -9999 -9999 -9999 -9999 -9999 -9999 -9999 -9999 -9999 -9999 -9999 -9999 -9999 -9999 -9999 -9999 -9999 -9999 -9999 -9999 -9999 -9999 -9999 -9999 -9999 -9999 -9999 -9999 -9999 -9999 -9999 -9999 -9999 -9999 -9999 -9999 -9999 -9999 -9999 -9999 -9999 63 8 -6 -1 6 -9999 -9999 -9999 -9999 -9999 -9999 -9999 -9999 -9999 -9999 -9999 -9999 -9999 -9999 -9999 -9999 -9999 -9999 -9999 -9999 -9999 -9999 -9999 -9999 -9999 -9999 -9999 -9999 -9999 2 -12 -17 -27 -32 -35 -34 -35 -37 -40 -37 -35 -41 -45 -43 -45 -47 -50 -54 -54 -55 -54 -60 -59 -60 -66 -63 -75 -78 -75 -69 -64 -80 -81 -73 -71 -76 -79 -89 -88 -86 -96 -120 -92 -102 -128 -132 -121 -101 -95 -90 -84 -74 -76 -74 -77 -95 -105 -99 -75 -94 -98 -100 -114 -155 -212 -312 -690 -985 -1115 -1202 -1273 -1350 -1400 -1376 -1423 -1480 -1584 -1649 -1727 -1860 -1990 -2207 -2510 -2875 -3358 -3503 -3651 -3982 -4185 -4350 -4431 -4479 -4544 -4621 -4702 -4757 -4812 -4878 -5013 -5017 -5047 -5103 -5115 -5119 -5176 -5285 -5208 -5189 -5207 -5245 -5299 -5354 -5453 -5429 -5428 -5447 -5444 -5421 -5397 -5401 -5468 -5535 -5520 -5492 -5534 -5590 -5561 -5542 -5505 -5487 -5486 -5493 -5496 -5492 -5499 -5507 -5502 -5484 -5481 -5490 -5483 -5480 -5477 -5466 -5450 -5450 -5449 -9999
-9999 -3934 -4154 -4200 -4113 -4048 -3743 -3650 -3783 -3906 -3977 -4061 -4071 -4108 -4151 -4134 -4031 -3946 -3844 -3814 -3834 -3822 -3755 -3770 -3672 -3873 -3694 -3677 -3619 -3731 -3849 -3853 -3844 -3845 -3846 -3928 -3891 -3764 -3669 -3547 -3571 -3690 -3607 -3542 -3420 -3344 -3384 -3304 -3403 -3486 -3465 -3459 -3542 -3705 -3829 -3761 -3840 -3999 -3912 -3846 -3845 -3912 -3909 -3886 -3894 -3879 -3831 -3743 -3746 -3696 -3755 -3607 -3515 -3401 -3327 -3391 -3516 -3446 -3134 -3025 -3279 -3539 -3680 -3688 -3615 -3610 -3606 -3549 -3590 -3605 -3586 -3640 -3709 -3687 -3830 -3966 -3995 -3833 -3749 -3654 -3774 -3783 -3789 -3791 -3792 -3796 -3802 -3827 -3844 -3857 -3872 -3867 -3868 -3865 -3859 -3826 -3879 -3940 -3994 -3563 -2690 -2132 -2113 -1710 -1398 -861 -685 -668 -531 -426 -215 -179 -144 -86 94 -9999 -9999 -9999 -9999 -9999 -9999 -9999 -9999 -9999 -9999 -9999 -9999 -9999 -9999 -9999 -9999 -9999 -9999 -9999 -9999 -9999 -9999 -9999 -9999 -9999 -9999 -9999 -9999 -9999 -9999 -9999 -9999 -9999 -9999 -9999 -9999 -9999 -9999 -9999 -9999 -9999 -9999 -9999 -9999 -9999 -9999 -9999 -9999 -9999 -9999 -9999 -9999 -9999 -9999 -9999 -9999 -9999 -9999 -9999 -9999 -9999 -9999 -9999 -9999 -9999 -9999 -9999 -9999 -9999 -9999 -9999 -9999 -9999 -9999 -9999 -9999 -9999 -9999 -9999 -9999 -9999 -9999 -9999 -9999 -9999 -9999 -9999 -9999 -9999 -9999 -9999 -9999 -9999 -9999 -9999 -9999 -9999 -9999 -9999 -9999 -9999 -9999 -9999 136 12 -8 -7 -10 -23 -24 -16 12 60 -9999 -9999 -9999 -9999 -9999 -9999 -9999 -9999 -9999 -9999 -9999 -9999 -9999 -9999 -9999 -9999 -9999 -9999 -9999 -9999 -9999 -9999 -9999 -9999 6 -9 -18 -29 -31 -34 -38 -40 -41 -37 -41 -38 -41 -43 -37 -35 -45 -48 -50 -48 -53 -66 -64 -65 -67 -70 -67 -69 -77 -81 -81 -83 -78 -93 -86 -82 -92 -92 -91 -103 -96 -93 -110 -110 -79 -88 -120 -116 -95 -89 -90 -73 -76 -78 -67 -73 -80 -77 -87 -83 -82 -89 -95 -111 -168 -344 -611 -775 -956 -1123 -1246 -1384 -1394 -1385 -1434 -1386 -1371 -1445 -1670 -1866 -1867 -2039 -2238 -2529 -2831 -3264 -3473 -3688 -4040 -4244 -4422 -4462 -4534 -4598 -4676 -4758 -4792 -4843 -4867 -4951 -5080 -5048 -5023 -5099 -5162 -5153 -5201 -5306 -5306 -5291 -5248 -5323 -5370 -5384 -5449 -5479 -5440 -5454 -5480 -5476 -5484 -5476 -5498 -5555 -5555 -5542 -5572 -5580 -5565 -5544 -5542 -5513 -5489 -5484 -5470 -5490 -5460 -5438 -5488 -5473 -5469 -5464 -5489 -5485 -5464 -5450 -5427 -5428 -5464 -9999
-9999 -3801 -3976 -4005 -4033 -4077 -3896 -3767 -3839 -3850 -3921 -3843 -3832 -3880 -3860 -3770 -3801 -3823 -3676 -3657 -3744 -3786 -3795 -3824 -3773 -3906 -3925 -3817 -3687 -3687 -3724 -3720 -3627 -3514 -3494 -3532 -3383 -3304 -3382 -3384 -3448 -3491 -3524 -3546 -3416 -3421 -3621 -3688 -3886 -4070 -4035 -4047 -4094 -4038 -4009 -3956 -4035 -3949 -3752 -3847 -3743 -3633 -3653 -3615 -3572 -3506 -3659 -3546 -3497 -3616 -3661 -3608 -3587 -3472 -3411 -3486 -3647 -3668 -3297 -2816 -3002 -3500 -3703 -3709 -3817 -3753 -3609 -3584 -3588 -3617 -3769 -3795 -3725 -3725 -3905 -3880 -3841 -3790 -3753 -3715 -3769 -3784 -3787 -3789 -3780 -3788 -3798 -3814 -3833 -3849 -3863 -3861 -3860 -3849 -3827 -3756 -3798 -3889 -3924 -3356 -2793 -2169 -1742 -1486 -1039 -877 -819 -820 -694 -482 -219 -184 -147 -43 255 -9999 -9999 -9999 -9999 -9999 -9999 -9999 -9999 -9999 -9999 -9999 -9999 -9999 -9999 -9999 -9999 -9999 -9999 -9999 -9999 -9999 -9999 -9999 -9999 -9999 -9999 -9999 -9999 -9999 -9999 -9999 -9999 -9999 -9999 -9999 -9999 -9999 -9999 -9999 -9999 -9999 -9999 -9999 -9999 -9999 -9999 -9999 -9999 -9999 -9999 -9999 -9999 -9999 -9999 -9999 -9999 -9999 -9999 -9999 -9999 -9999 -9999 -9999 -9999 -9999 -9999 -9999 -9999 -9999 -9999 -9999 -9999 -9999 -9999 -9999 -9999 -9999 -9999 -9999 -9999 -9999 -9999 -9999 -9999 -9999 -9999 -9999 -9999 -9999 -9999 -9999 -9999 -9999 -9999 -9999 -9999 -9999 -9999 -9999 -9999 -9999 -9999 -9999 90 -13 -46 -72 -91 -107 -119 -115 -92 -62 -15 39 -9999 29 -9999 -9999 -9999 -9999 -9999 -9999 -9999 -9999 -9999 -9999 -9999 -9999 -9999 -9999 -9999 -9999 -9999 17 -2 -11 -18 -24 -27 -30 -31 -39 -42 -41 -42 -40 -41 -41 -47 -40 -36 -32 -43 -41 -33 -31 -55 -67 -74 -69 -67 -73 -67 -71 -72 -78 -81 -82 -83 -81 -67 -81 -85 -89 -94 -93 -88 -96 -108 -101 -105 -111 -110 -106 -87 -80 -62 -62 -82 -63 -75 -88 -83 -78 -73 -87 -93 -97 -102 -129 -169 -452 -872 -1037 -1131 -1214 -1399 -1536 -1509 -1497 -1503 -1474 -1479 -1555 -1734 -1889 -2082 -2332 -2571 -2803 -3219 -3493 -3742 -3992 -4211 -4376 -4474 -4514 -4633 -4692 -4766 -4802 -4858 -4889 -4908 -4963 -5040 -5019 -4954 -5069 -5200 -5238 -5286 -5273 -5301 -5361 -5389 -5405 -5441 -5550 -5490 -5430 -5428 -5438 -5447 -5474 -5533 -5551 -5556 -5585 -5583 -5580 -5574 -5567 -5570 -5565 -5552 -5512 -5500 -5511 -5513 -5488 -5396 -5373 -5450 -5461 -5478 -5445 -5472 -5477 -5467 -5440 -5416 -5410 -5448 -9999
-9999 -3570 -3589 -3678 -3718 -3723 -3697 -3644 -3752 -3763 -3831 -3767 -3799 -3808 -3732 -3708 -3798 -3849 -3787 -3694 -3804 -3847 -3727 -3591 -3498 -3541 -3565 -3448 -3371 -3402 -3432 -3428 -3434 -3353 -3410 -3545 -3462 -3518 -3703 -3653 -3657 -3698 -3937 -4039 -3809 -3796 -3972 -4003 -4001 -3933 -3873 -3923 -3992 -3857 -3810 -3857 -3828 -3496 -3308 -3559 -3594 -3478 -3465 -3484 -3478 -3533 -3684 -3666 -3567 -3525 -3642 -3707 -3437 -3302 -3438 -3500 -3502 -3685 -3753 -3412 -3304 -3575 -3731 -3701 -3845 -3786 -3606 -3624 -3613 -3650 -3748 -3723 -3670 -3720 -3789 -3702 -3718 -3797 -3780 -3691 -3698 -3769 -3782 -3789 -3785 -3793 -3790 -3802 -3827 -3843 -3856 -3855 -3855 -3847 -3827 -3779 -3739 -3736 -3624 -3132 -2734 -2221 -1752 -1567 -981 -698 -780 -825 -677 -431 -240 -185 -152 -20 -9999 -9999 -9999 -9999 -9999 -9999 -9999 -9999 -9999 -9999 -9999 -9999 -9999 -9999 -9999 -9999 -9999 -9999 -9999 -9999 -9999 -9999 -9999 -9999 -9999 -9999 -9999 -9999 -9999 -9999 -9999 -9999 -9999 -9999 -9999 -9999 -9999 -9999 -9999 -9999 -9999 -9999 -9999 -9999 -9999 -9999 -9999 -9999 -9999 -9999 -9999 -9999 -9999 -9999 -9999 -9999 -9999 -9999 -9999 -9999 -9999 -9999 -9999 -9999 -9999 -9999 -9999 -9999 -9999 -9999 -9999 -9999 -9999 -9999 -9999 -9999 -9999 -9999 -9999 -9999 -9999 -9999 -9999 -9999 -9999 -9999 -9999 -9999 -9999 -9999 -9999 -9999 -9999 -9999 -9999 -9999 -9999 -9999 -9999 -9999 -9999 -9999 -9999 -9999 52 -15 -58 -91 -108 -122 -129 -137 -127 -118 -98 -69 -34 -10 3 -9999 -9999 -9999 -9999 -9999 -9999 -9999 -9999 -9999 -9999 -9999 -9999 -9999 17 -1 -7 -17 -22 -22 -18 -25 -27 -28 -34 -39 -43 -43 -44 -43 -47 -48 -48 -37 -34 -29 -39 -36 -24 -44 -60 -77 -78 -80 -88 -81 -74 -72 -74 -74 -76 -78 -88 -87 -83 -76 -81 -88 -87 -92 -91 -89 -90 -96 -103 -96 -86 -90 -84 -73 -75 -88 -88 -63 -65 -89 -82 -86 -87 -95 -95 -125 -133 -161 -292 -579 -890 -1043 -1158 -1265 -1519 -1615 -1483 -1499 -1578 -1839 -1809 -1884 -1929 -2083 -2315 -2728 -3070 -3253 -3455 -3736 -4074 -4268 -4370 -4428 -4478 -4540 -4648 -4716 -4775 -4838 -4881 -4921 -4981 -5008 -5038 -5017 -4953 -5070 -5185 -5214 -5263 -5312 -5333 -5363 -5416 -5395 -5440 -5601 -5498 -5364 -5452 -5520 -5512 -5539 -5566 -5564 -5568 -5565 -5580 -5582 -5573 -5601 -5571 -5564 -5561 -5518 -5518 -5578 -5547 -5474 -5443 -5453 -5456 -5465 -5477 -5444 -5483 -5476 -5476 -5449 -5430 -5435 -5400 -9999
-9999 -3500 -3499 -3580 -3806 -3881 -3966 -3962 -4072 -4207 -4283 -4336 -4276 -3688 -3508 -3363 -3406 -3431 -3358 -3386 -3514 -3449 -3267 -3310 -3467 -3517 -3493 -3623 -3748 -3718 -3724 -3840 -3933 -3825 -3818 -3855 -3752 -3814 -3849 -3748 -3804 -3812 -3926 -3907 -3739 -3703 -3654 -3658 -3651 -3577 -3535 -3581 -3652 -3564 -3456 -3503 -3606 -3561 -3426 -3380 -3500 -3560 -3554 -3549 -3547 -3683 -3673 -3683 -3636 -3547 -3679 -3875 -3523 -3271 -3459 -3603 -3597 -3667 -3790 -3658 -3625 -3758 -3712 -3724 -3918 -3852 -3734 -3660 -3638 -3650 -3690 -3746 -3676 -3723 -3804 -3692 -3642 -3761 -3789 -3712 -3678 -3754 -3761 -3788 -3786 -3768 -3785 -3802 -3813 -3835 -3849 -3849 -3852 -3846 -3842 -3824 -3811 -3764 -3285 -2768 -2099 -1876 -2223 -1643 -1021 -653 -652 -748 -476 -372 -299 -185 -146 -76 360 -9999 -9999 -9999 -9999 -9999 -9999 -9999 -9999 -9999 -9999 -9999 -9999 -9999 -9999 -9999 -9999 -9999 -9999 -9999 -9999 -9999 -9999 -9999 -9999 -9999 -9999 -9999 -9999 -9999 -9999 -9999 -9999 -9999 -9999 -9999 -9999 -9999 -9999 -9999 -9999 -9999 -9999 -9999 -9999 -9999 -9999 -9999 -9999 -9999 -9999 -9999 -9999 -9999 -9999 -9999 -9999 -9999 -9999 -9999 -9999 -9999 -9999 -9999 -9999 -9999 -9999 -9999 -9999 -9999 -9999 -9999 -9999 -9999 -9999 -9999 -9999 -9999 -9999 -9999 -9999 -9999 -9999 -9999 -9999 -9999 -9999 -9999 -9999 -9999 -9999 -9999 -9999 -9999 -9999 -9999 -9999 -9999 -9999 -9999 -9999 -9999 -9999 -9999 -9999 -14 -58 -95 -118 -131 -139 -149 -147 -134 -118 -103 -91 -72 -37 -14 40 -9999 56 53 -9999 44 15 36 41 27 16 0 -15 -21 -22 -25 -24 -23 -20 -28 -32 -32 -39 -46 -48 -52 -53 -58 -58 -47 -37 -29 -39 -38 -49 -49 -38 -57 -60 -81 -95 -108 -103 -89 -80 -76 -77 -84 -77 -76 -88 -92 -87 -81 -73 -79 -78 -81 -84 -89 -88 -87 -69 -43 -49 -70 -86 -77 -36 -49 -90 -93 -77 -84 -85 -86 -89 -105 -119 -177 -182 -258 -489 -748 -961 -1073 -1131 -1202 -1327 -1369 -1337 -1453 -1616 -1752 -1874 -2060 -2301 -2651 -2730 -2992 -3441 -3698 -3765 -4054 -4249 -4374 -4428 -4457 -4484 -4486 -4589 -4625 -4672 -4885 -5007 -4895 -4937 -4997 -5047 -5115 -5150 -5181 -5220 -5237 -5266 -5331 -5373 -5378 -5413 -5390 -5370 -5472 -5503 -5436 -5495 -5543 -5535 -5562 -5570 -5549 -5537 -5536 -5537 -5563 -5589 -5616 -5569 -5572 -5574 -5563 -5573 -5568 -5546 -5547 -5519 -5537 -5538 -5539 -5487 -5485 -5562 -5486 -5433 -5430 -5456 -5517 -5484 -9999
-9999 -3839 -3560 -3794 -4194 -4333 -4262 -3901 -3719 -3810 -3886 -4020 -4072 -3376 -2874 -2929 -3128 -3327 -3540 -3806 -3861 -3776 -3761 -3795 -3900 -4007 -3989 -4108 -4139 -3971 -3921 -3956 -3911 -3786 -3813 -3873 -3854 -3759 -3621 -3670 -4012 -4134 -4056 -4001 -3845 -3612 -3398 -3420 -3499 -3523 -3434 -3426 -3590 -3682 -3536 -3512 -3572 -3575 -3511 -3457 -3640 -3721 -3648 -3629 -3682 -3686 -3626 -3680 -3740 -3679 -3504 -3471 -3352 -3176 -3305 -3494 -3597 -3609 -3604 -3539 -3655 -3799 -3670 -3702 -3775 -3779 -3792 -3748 -3694 -3660 -3749 -3822 -3705 -3693 -3681 -3640 -3657 -3754 -3774 -3683 -3748 -3773 -3772 -3788 -3781 -3750 -3782 -3794 -3808 -3826 -3843 -3843 -3849 -3850 -3860 -3862 -3860 -3805 -3199 -2580 -2078 -1626 -1522 -1570 -995 -674 -673 -608 -482 -312 -267 -181 -135 -76 124 -9999 -9999 -9999 -9999 -9999 -9999 -9999 -9999 -9999 -9999 -9999 -9999 -9999 -9999 -9999 -9999 -9999 -9999 -9999 -9999 -9999 -9999 -9999 -9999 -9999 -9999 -9999 -9999 -9999 -9999 -9999 -9999 -9999 -9999 -9999 -9999 -9999 -9999 -9999 -9999 -9999 -9999 -9999 -9999 -9999 -9999 -9999 -9999 -9999 -9999 -9999 -9999 -9999 -9999 -9999 -9999 -9999 -9999 -9999 -9999 -9999 -9999 -9999 -9999 -9999 -9999 -9999 -9999 -9999 -9999 -9999 -9999 -9999 -9999 -9999 -9999 -9999 -9999 -9999 -9999 -9999 -9999 -9999 -9999 -9999 -9999 -9999 -9999 -9999 -9999 -9999 -9999 -9999 -9999 -9999 -9999 -9999 -9999 -9999 -9999 -9999 -9999 -9999 -9999 0 -53 -95 -126 -136 -149 -155 -157 -143 -132 -116 -105 -94 -74 -58 -42 -36 -37 -37 -33 -30 -31 -26 -21 -24 -29 -27 -29 -28 -26 -27 -26 -24 -23 -34 -37 -39 -45 -51 -57 -57 -67 -74 -67 -51 -52 -45 -28 -39 -57 -53 -52 -68 -65 -85 -95 -112 -112 -88 -76 -81 -78 -94 -89 -78 -67 -75 -82 -81 -80 -78 -75 -77 -82 -80 -64 -68 -33 -65 -74 -74 -92 -95 -56 -61 -79 -75 -88 -86 -85 -83 -85 -106 -151 -285 -309 -406 -628 -882 -1034 -1103 -1214 -1316 -1346 -1334 -1410 -1544 -1695 -1792 -1946 -2076 -2369 -2836 -3161 -3474 -3850 -4175 -4111 -4304 -4347 -4410 -4540 -4573 -4542 -4558 -4579 -4561 -4646 -4898 -4961 -4886 -4960 -5008 -5131 -5233 -5190 -5196 -5269 -5244 -5269 -5335 -5393 -5403 -5405 -5396 -5450 -5575 -5577 -5544 -5552 -5561 -5558 -5561 -5527 -5524 -5559 -5552 -5520 -5497 -5575 -5586 -5556 -5573 -5596 -5583 -5584 -5547 -5535 -5550 -5533 -5526 -5528 -5516 -5530 -5592 -5608 -5569 -5522 -5510 -5523 -5552 -5611 -9999
-9999 -3166 -2968 -3234 -3296 -3169 -3087 -2897 -2642 -2662 -2954 -3560 -3693 -3533 -3461 -3652 -3905 -4139 -4230 -4204 -3990 -3860 -3915 -3875 -3897 -3944 -3942 -4041 -4030 -3958 -4039 -4043 -3929 -3942 -4105 -4159 -4113 -3848 -3514 -3579 -3876 -3832 -3595 -3678 -3542 -3305 -3250 -3405 -3442 -3476 -3481 -3477 -3629 -3668 -3544 -3650 -3782 -3611 -3588 -3678 -3678 -3630 -3570 -3655 -3813 -3653 -3455 -3537 -3767 -3819 -3642 -3484 -3451 -3260 -3217 -3411 -3717 -3779 -3669 -3653 -3745 -3778 -3726 -3709 -3659 -3528 -3632 -3710 -3689 -3618 -3652 -3686 -3735 -3721 -3628 -3659 -3687 -3770 -3801 -3734 -3754 -3766 -3706 -3790 -3765 -3767 -3782 -3791 -3804 -3825 -3835 -3838 -3845 -3850 -3858 -3872 -3867 -3535 -2851 -2517 -2193 -1912 -1688 -1391 -1242 -844 -638 -397 -301 -233 -188 -182 -139 -84 2 -9999 -9999 -9999 -9999 -9999 -9999 -9999 -9999 -9999 -9999 -9999 -9999 -9999 -9999 -9999 -9999 -9999 -9999 -9999 -9999 -9999 -9999 -9999 -9999 -9999 -9999 -9999 -9999 -9999 -9999 -9999 -9999 -9999 -9999 -9999 -9999 -9999 -9999 -9999 -9999 -9999 -9999 -9999 -9999 -9999 -9999 -9999 -9999 -9999 -9999 -9999 -9999 -9999 -9999 -9999 -9999 -9999 -9999 -9999 -9999 -9999 -9999 -9999 -9999 -9999 -9999 -9999 -9999 -9999 -9999 -9999 -9999 -9999 -9999 -9999 -9999 -9999 -9999 -9999 -9999 -9999 -9999 -9999 -9999 -9999 -9999 -9999 -9999 -9999 -9999 -9999 -9999 -9999 -9999 -9999 -9999 -9999 -9999 -9999 -9999 -9999 -9999 -9999 -9999 21 -51 -83 -112 -125 -151 -160 -161 -154 -150 -136 -124 -102 -84 -71 -61 -50 -50 -52 -54 -38 -40 -43 -43 -37 -29 -27 -29 -27 -29 -29 -35 -34 -29 -38 -40 -40 -43 -54 -65 -65 -74 -84 -75 -50 -64 -67 -55 -41 -46 -50 -59 -71 -64 -91 -110 -101 -103 -90 -83 -81 -72 -80 -94 -98 -75 -74 -80 -81 -79 -86 -82 -80 -84 -80 -86 -123 -114 -91 -62 -48 -81 -83 -92 -72 -66 -98 -114 -91 -93 -89 -108 -132 -136 -147 -344 -551 -739 -975 -1130 -1141 -1277 -1329 -1485 -1627 -1559 -1660 -1746 -1875 -2070 -2326 -2632 -3027 -3515 -3932 -4248 -4140 -4241 -4371 -4418 -4456 -4588 -4630 -4699 -4713 -4641 -4627 -4710 -4818 -4845 -4910 -4965 -4985 -5096 -5117 -5126 -5210 -5282 -5260 -5289 -5370 -5397 -5435 -5458 -5427 -5458 -5533 -5515 -5528 -5540 -5526 -5505 -5492 -5466 -5477 -5499 -5535 -5554 -5525 -5592 -5601 -5571 -5581 -5583 -5580 -5574 -5564 -5568 -5557 -5520 -5465 -5518 -5509 -5551 -5664 -5645 -5662 -5667 -5662 -5608 -5645 -5727 -9999
-9999 -2755 -2941 -3334 -3144 -2950 -3190 -3605 -3607 -3273 -3242 -3535 -3727 -3830 -3715 -3375 -3245 -3599 -3801 -3745 -3657 -3689 -3875 -4148 -4352 -4328 -4307 -4274 -4049 -3946 -4069 -4013 -3817 -3774 -3856 -3772 -3606 -3398 -3270 -3449 -3637 -3576 -3371 -3470 -3483 -3357 -3369 -3511 -3569 -3580 -3572 -3545 -3628 -3610 -3552 -3633 -3654 -3495 -3519 -3605 -3545 -3586 -3535 -3649 -3798 -3783 -3684 -3729 -3768 -3709 -3726 -3664 -3794 -3761 -3538 -3474 -3698 -3846 -3739 -3743 -3828 -3762 -3738 -3727 -3683 -3647 -3611 -3657 -3645 -3600 -3649 -3702 -3773 -3748 -3697 -3643 -3642 -3755 -3797 -3748 -3767 -3766 -3582 -3761 -3763 -3777 -3784 -3793 -3807 -3819 -3827 -3833 -3842 -3850 -3859 -3874 -3865 -3667 -2916 -2698 -2331 -2015 -1677 -1355 -1169 -1054 -807 -302 -251 -228 -196 -175 -150 -85 -27 -9999 -9999 -9999 -9999 -9999 -9999 -9999 -9999 -9999 -9999 -9999 -9999 -9999 -9999 -9999 -9999 -9999 -9999 -9999 -9999 -9999 -9999 -9999 -9999 -9999 -9999 -9999 -9999 -9999 -9999 -9999 -9999 -9999 -9999 -9999 -9999 -9999 -9999 -9999 -9999 -9999 -9999 -9999 -9999 -9999 -9999 -9999 -9999 -9999 -9999 -9999 -9999 -9999 -9999 -9999 -9999 -9999 -9999 -9999 -9999 -9999 -9999 -9999 -9999 -9999 -9999 -9999 -9999 -9999 -9999 -9999 -9999 -9999 -9999 -9999 -9999 -9999 -9999 -9999 -9999 -9999 -9999 -9999 -9999 -9999 -9999 -9999 -9999 -9999 -9999 -9999 -9999 -9999 -9999 -9999 -9999 -9999 -9999 -9999 -9999 -9999 -9999 -9999 -9999 -9999 -15 -63 -94 -135 -153 -163 -161 -157 -153 -145 -122 -113 -96 -80 -67 -58 -51 -50 -51 -50 -52 -50 -48 -44 -43 -38 -36 -31 -40 -38 -45 -37 -33 -39 -49 -44 -50 -62 -75 -76 -77 -75 -75 -63 -76 -74 -70 -49 -54 -52 -57 -68 -70 -84 -104 -107 -108 -93 -83 -91 -80 -71 -95 -109 -92 -76 -76 -77 -93 -84 -82 -88 -83 -91 -86 -89 -85 -93 -93 -71 -59 -68 -92 -84 -80 -95 -86 -92 -91 -105 -125 -136 -150 -153 -531 -741 -870 -1015 -1144 -1291 -1464 -1447 -1480 -1625 -1721 -1907 -1977 -2164 -2378 -2702 -2872 -3339 -3693 -3991 -4308 -4455 -4403 -4558 -4620 -4605 -4652 -4695 -4690 -4653 -4647 -4701 -4782 -4827 -4795 -4932 -5023 -4957 -5103 -5179 -5188 -5292 -5314 -5303 -5345 -5390 -5366 -5449 -5531 -5449 -5476 -5502 -5522 -5514 -5472 -5437 -5442 -5487 -5461 -5436 -5468 -5568 -5597 -5555 -5569 -5603 -5590 -5550 -5542 -5585 -5569 -5562 -5564 -5543 -5282 -5043 -5347 -5506 -5535 -5632 -5667 -5720 -5749 -5766 -5737 -5697 -5736 -9999
-9999 -3805 -3653 -3960 -4018 -3890 -3532 -3567 -3465 -3350 -3038 -3130 -3063 -3621 -3636 -3469 -3396 -3672 -3953 -4080 -3986 -3778 -3843 -4136 -4244 -4165 -4065 -3881 -3590 -3555 -3706 -3593 -3471 -3502 -3565 -3520 -3382 -3248 -3192 -3289 -3558 -3872 -3771 -3492 -3463 -3507 -3539 -3553 -3690 -3707 -3625 -3601 -3589 -3537 -3605 -3667 -3706 -3679 -3572 -3616 -3675 -3691 -3650 -3624 -3630 -3733 -3736 -3733 -3734 -3737 -3790 -3627 -3688 -3856 -3778 -3584 -3659 -3863 -3765 -3719 -3770 -3748 -3745 -3730 -3645 -3700 -3700 -3712 -3731 -3654 -3700 -3799 -3816 -3734 -3660 -3562 -3556 -3768 -3821 -3784 -3757 -3742 -3745 -3770 -3771 -3776 -3778 -3785 -3802 -3819 -3825 -3829 -3839 -3849 -3860 -3876 -3857 -3411 -2867 -2380 -1977 -1625 -1450 -1076 -750 -657 -969 -741 -671 -654 -253 -200 -153 -96 -21 -9999 -9999 -9999 -9999 -9999 -9999 -9999 -9999 -9999 -9999 66 90 -9999 -9999 -9999 -9999 -9999 -9999 -9999 -9999 -9999 -9999 -9999 -9999 -9999 -9999 -9999 -9999 -9999 -9999 -9999 -9999 -9999 -9999 -9999 -9999 -9999 -9999 -9999 -9999 -9999 -9999 -9999 -9999 -9999 -9999 -9999 -9999 -9999 -9999 -9999 -9999 -9999 -9999 -9999 -9999 -9999 -9999 -9999 -9999 -9999 -9999 -9999 -9999 -9999 -9999 -9999 -9999 -9999 -9999 -9999 -9999 -9999 -9999 -9999 -9999 -9999 -9999 -9999 -9999 -9999 -9999 -9999 -9999 -9999 -9999 -9999 -9999 -9999 -9999 -9999 -9999 -9999 -9999 -9999 -9999 -9999 -9999 -9999 -9999 -9999 -9999 -9999 -9999 -9999 17 -37 -94 -134 -158 -167 -172 -157 -149 -146 -136 -124 -110 -84 -77 -62 -52 -51 -54 -51 -53 -47 -45 -40 -38 -46 -49 -39 -49 -41 -40 -39 -39 -43 -45 -47 -54 -70 -79 -83 -75 -61 -78 -84 -85 -76 -70 -56 -53 -58 -73 -72 -69 -76 -95 -97 -109 -103 -106 -106 -90 -73 -107 -112 -98 -98 -76 -63 -91 -85 -86 -84 -80 -82 -78 -75 -80 -81 -70 -39 -33 -76 -100 -73 -32 -77 -96 -97 -93 -139 -173 -244 -363 -536 -760 -897 -1049 -1090 -1295 -1540 -1678 -1597 -1619 -1656 -1704 -1931 -2027 -2477 -2952 -3308 -3535 -3777 -3980 -4146 -4326 -4445 -4477 -4582 -4579 -4554 -4579 -4626 -4607 -4603 -4638 -4703 -4767 -4801 -4838 -4975 -5080 -5061 -5185 -5304 -5275 -5335 -5352 -5369 -5390 -5400 -5424 -5463 -5498 -5486 -5510 -5523 -5527 -5541 -5476 -5419 -5445 -5576 -5534 -5458 -5529 -5646 -5630 -5593 -5590 -5607 -5605 -5588 -5554 -5589 -5528 -5522 -5553 -5512 -5193 -5018 -5329 -5503 -5398 -5176 -5386 -5723 -5780 -5778 -5767 -5755 -5772 -9999
-9999 -3229 -2770 -2985 -4330 -4480 -3267 -2913 -3469 -4126 -4004 -3561 -3527 -3602 -3751 -3519 -3486 -3482 -3508 -3440 -3260 -3255 -3645 -3875 -3746 -3678 -3562 -3150 -2985 -3277 -3516 -3446 -3341 -3311 -3387 -3482 -3514 -3455 -3351 -3402 -3621 -3893 -3837 -3497 -3391 -3498 -3678 -3639 -3633 -3590 -3569 -3593 -3522 -3487 -3552 -3501 -3590 -3666 -3588 -3701 -3730 -3602 -3596 -3696 -3649 -3651 -3681 -3651 -3680 -3729 -3806 -3691 -3482 -3543 -3729 -3731 -3756 -3858 -3784 -3765 -3733 -3729 -3794 -3758 -3681 -3758 -3738 -3764 -3811 -3755 -3720 -3711 -3707 -3690 -3674 -3696 -3675 -3739 -3747 -3719 -3700 -3705 -3715 -3760 -3763 -3765 -3772 -3786 -3798 -3814 -3819 -3828 -3837 -3850 -3863 -3878 -3840 -3330 -2619 -2242 -1949 -1663 -1285 -915 -690 -389 -340 -554 -434 -421 -444 -178 -143 -99 -51 13 26 -9999 38 -9999 -9999 -9999 -9999 88 8 -154 -203 -95 -9999 -9999 -9999 -9999 -9999 -9999 -9999 -9999 -9999 -9999 -9999 -9999 -9999 -9999 -9999 -9999 -9999 -9999 -9999 -9999 -9999 -9999 -9999 -9999 -9999 -9999 -9999 -9999 -9999 -9999 -9999 -9999 -9999 -9999 -9999 -9999 -9999 -9999 -9999 -9999 -9999 -9999 -9999 -9999 -9999 -9999 -9999 -9999 -9999 -9999 -9999 -9999 -9999 -9999 -9999 -9999 -9999 -9999 -9999 -9999 -9999 -9999 -9999 -9999 -9999 -9999 -9999 -9999 -9999 -9999 -9999 -9999 -9999 -9999 -9999 -9999 -9999 -9999 -9999 -9999 -9999 -9999 -9999 -9999 -9999 -9999 -9999 -9999 -9999 -9999 -9999 -9999 39 -20 -93 -135 -158 -152 -141 -144 -137 -132 -129 -114 -97 -83 -90 -68 -60 -55 -51 -57 -57 -47 -42 -39 -47 -53 -54 -38 -44 -46 -46 -42 -40 -47 -49 -51 -50 -66 -78 -90 -84 -87 -91 -84 -85 -63 -79 -81 -85 -94 -93 -84 -106 -97 -97 -119 -105 -76 -125 -111 -101 -81 -101 -121 -119 -121 -101 -78 -81 -88 -94 -85 -79 -78 -77 -69 -83 -76 -52 -33 -16 -36 -82 -88 -35 -31 -70 -112 -111 -128 -174 -299 -462 -790 -922 -1083 -1116 -839 -1168 -1523 -1685 -1748 -1825 -1810 -1851 -1991 -1933 -2554 -3071 -3366 -3666 -4026 -4204 -4323 -4365 -4378 -4387 -4365 -4377 -4423 -4462 -4485 -4546 -4612 -4638 -4726 -4802 -4862 -4982 -5041 -5123 -5151 -5190 -5268 -5272 -5278 -5336 -5444 -5492 -5444 -5471 -5482 -5497 -5511 -5540 -5562 -5535 -5539 -5532 -5481 -5471 -5608 -5630 -5560 -5622 -5680 -5658 -5629 -5601 -5604 -5593 -5610 -5624 -5593 -5539 -5547 -5543 -5512 -5339 -5384 -5595 -5762 -5798 -5731 -5784 -5787 -5760 -5744 -5774 -5810 -5766 -9999
-9999 -3633 -3647 -3708 -3826 -3436 -3435 -3127 -3351 -4177 -3484 -3202 -2954 -2853 -3264 -2707 -2768 -2675 -2722 -2960 -3311 -3682 -3947 -3796 -3170 -3058 -3383 -3205 -3025 -3233 -3490 -3635 -3485 -3284 -3329 -3432 -3583 -3603 -3425 -3362 -3430 -3589 -3639 -3516 -3429 -3487 -3674 -3650 -3573 -3524 -3511 -3524 -3550 -3502 -3455 -3489 -3554 -3541 -3576 -3725 -3619 -3492 -3532 -3641 -3589 -3583 -3634 -3604 -3601 -3642 -3791 -3785 -3581 -3523 -3724 -3803 -3787 -3797 -3755 -3764 -3719 -3738 -3793 -3737 -3522 -3571 -3715 -3814 -3851 -3771 -3694 -3659 -3616 -3593 -3649 -3716 -3696 -3739 -3777 -3706 -3678 -3684 -3714 -3732 -3751 -3748 -3754 -3783 -3789 -3788 -3812 -3828 -3838 -3853 -3867 -3876 -3796 -3018 -2761 -2426 -1929 -1578 -1153 -715 -466 -242 -181 -255 -223 -185 -183 -191 -148 -95 -54 -26 -6 5 10 -9999 -9999 -9999 -9999 77 -78 -170 -242 -307 -190 -9999 -9999 -9999 -9999 -9999 -9999 -9999 -9999 -9999 -9999 -9999 -9999 -9999 -9999 -9999 -9999 -9999 -9999 -9999 -9999 -9999 -9999 -9999 -9999 -9999 -9999 -9999 -9999 -9999 -9999 -9999 -9999 -9999 -9999 -9999 -9999 -9999 -9999 -9999 -9999 -9999 -9999 -9999 -9999 -9999 -9999 -9999 -9999 -9999 -9999 -9999 -9999 -9999 -9999 -9999 -9999 -9999 -9999 -9999 -9999 -9999 -9999 -9999 -9999 -9999 -9999 -9999 -9999 -9999 -9999 -9999 -9999 -9999 -9999 -9999 -9999 -9999 -9999 -9999 -9999 -9999 -9999 -9999 -9999 -9999 -9999 -9999 -9999 -9999 -9999 -9999 16 -27 -86 -124 -159 -166 -154 -156 -121 -118 -106 -95 -90 -77 -79 -73 -62 -62 -57 -58 -67 -65 -56 -53 -55 -53 -51 -55 -54 -50 -44 -42 -41 -53 -58 -57 -53 -68 -84 -95 -86 -90 -97 -69 -68 -76 -77 -77 -98 -114 -113 -113 -120 -103 -96 -122 -115 -118 -139 -125 -117 -97 -84 -95 -98 -98 -101 -106 -87 -77 -88 -86 -80 -80 -101 -85 -84 -70 -78 -68 -40 -42 -78 -77 -83 -63 -93 -111 -124 -185 -315 -452 -713 -875 -998 -1093 -1190 -1315 -1367 -1532 -1696 -1763 -1845 -1880 -2062 -2210 -2367 -2776 -3170 -3462 -3692 -3937 -4184 -4314 -4352 -4327 -4351 -4388 -4374 -4366 -4444 -4525 -4569 -4643 -4730 -4822 -4875 -4935 -5023 -5083 -5128 -5181 -5199 -5258 -5305 -5319 -5375 -5516 -5518 -5466 -5484 -5486 -5513 -5557 -5565 -5551 -5530 -5568 -5574 -5545 -5472 -5517 -5588 -5602 -5683 -5728 -5683 -5652 -5635 -5609 -5587 -5610 -5619 -5599 -5598 -5596 -5551 -5477 -5468 -5562 -5713 -5774 -5776 -5761 -5780 -5779 -5756 -5748 -5810 -5851 -5769 -9999
-9999 -3037 -2726 -3002 -2966 -2753 -2606 -3116 -3078 -3582 -3294 -3185 -4023 -3702 -3308 -2935 -3093 -3017 -3062 -3423 -3813 -3879 -3795 -3601 -3140 -3110 -3523 -3644 -3522 -3354 -3469 -3732 -3557 -3314 -3397 -3548 -3709 -3646 -3367 -3242 -3305 -3485 -3590 -3572 -3515 -3472 -3522 -3455 -3432 -3476 -3519 -3598 -3553 -3460 -3357 -3400 -3369 -3395 -3582 -3613 -3491 -3551 -3553 -3538 -3550 -3588 -3562 -3523 -3597 -3666 -3717 -3681 -3683 -3712 -3783 -3772 -3747 -3688 -3645 -3722 -3707 -3734 -3760 -3738 -3496 -3662 -3768 -3849 -3788 -3625 -3566 -3621 -3647 -3661 -3694 -3646 -3664 -3712 -3675 -3644 -3664 -3691 -3668 -3687 -3743 -3703 -3662 -3623 -3636 -3649 -3753 -3830 -3840 -3854 -3871 -3874 -3775 -3022 -2514 -2152 -1830 -1286 -872 -485 -211 -172 -136 -154 -167 -152 -157 -146 -104 -51 -31 -17 -3 -9999 -9999 -9999 -9999 80 88 65 -33 -19 -144 -227 -316 74 116 142 -9999 -9999 -9999 -9999 -9999 -9999 -9999 -9999 -9999 -9999 -9999 -9999 -9999 -9999 -9999 -9999 -9999 -9999 -9999 -9999 -9999 -9999 -9999 -9999 -9999 -9999 -9999 -9999 -9999 -9999 -9999 -9999 -9999 -9999 -9999 -9999 -9999 -9999 -9999 -9999 -9999 -9999 -9999 -9999 -9999 -9999 -9999 -9999 -9999 -9999 -9999 -9999 -9999 -9999 -9999 -9999 -9999 -9999 -9999 -9999 -9999 -9999 -9999 -9999 -9999 -9999 -9999 -9999 -9999 -9999 -9999 -9999 -9999 -9999 -9999 -9999 -9999 -9999 -9999 -9999 -9999 -9999 -9999 -9999 -9999 -9999 -9999 -9999 16 -31 -82 -123 -152 -144 -141 -130 -119 -107 -92 -104 -93 -79 -84 -83 -68 -64 -57 -60 -67 -77 -64 -59 -54 -53 -55 -50 -59 -51 -50 -47 -45 -51 -61 -65 -61 -82 -93 -100 -96 -98 -89 -67 -66 -70 -79 -72 -85 -109 -103 -95 -109 -112 -130 -135 -112 -154 -151 -149 -133 -105 -81 -84 -85 -101 -116 -131 -118 -84 -86 -96 -79 -68 -102 -93 -82 -82 -88 -94 -85 -92 -99 -106 -130 -155 -125 -129 -206 -306 -483 -728 -902 -1015 -1083 -1158 -1168 -1343 -1443 -1481 -1582 -1774 -1878 -1991 -2234 -2462 -2811 -3075 -3458 -3652 -3970 -4241 -4303 -4389 -4399 -4323 -4414 -4457 -4466 -4462 -4542 -4645 -4653 -4664 -4782 -4872 -4889 -5047 -5090 -5111 -5144 -5233 -5331 -5329 -5398 -5376 -5371 -5402 -5430 -5444 -5472 -5478 -5571 -5601 -5516 -5502 -5528 -5570 -5578 -5582 -5503 -5481 -5498 -5525 -5595 -5633 -5620 -5647 -5663 -5625 -5613 -5622 -5597 -5598 -5662 -5668 -5562 -5487 -5562 -5681 -5763 -5752 -5733 -5707 -5729 -5759 -5759 -5767 -5759 -5692 -5545 -9999
-9999 -3066 -2830 -3317 -3645 -3541 -3384 -3242 -3159 -3506 -3724 -2866 -3271 -3559 -2978 -2837 -3139 -3384 -3428 -3489 -3437 -3366 -3347 -3351 -3370 -3500 -3524 -3502 -3541 -3406 -3464 -3628 -3466 -3418 -3543 -3593 -3639 -3497 -3353 -3385 -3394 -3421 -3477 -3470 -3396 -3357 -3554 -3525 -3405 -3402 -3457 -3607 -3503 -3393 -3376 -3401 -3407 -3403 -3525 -3508 -3483 -3532 -3554 -3558 -3579 -3542 -3508 -3553 -3603 -3671 -3674 -3647 -3750 -3758 -3714 -3747 -3725 -3686 -3652 -3617 -3579 -3669 -3730 -3647 -3707 -3739 -3676 -3581 -3564 -3610 -3584 -3586 -3679 -3724 -3560 -3460 -3500 -3475 -3449 -3542 -3480 -3613 -3646 -3637 -3733 -3653 -3676 -3764 -3772 -3774 -3811 -3825 -3835 -3851 -3870 -3876 -3640 -3017 -2500 -2196 -1901 -1349 -799 -358 -178 -159 -134 -145 -155 -150 -141 -101 10 13 -13 -22 -16 -11 2 -10 -12 -2 0 -11 -1 -173 -182 -189 24 -9999 -9999 -9999 -9999 -9999 -9999 -9999 -9999 -9999 -9999 -9999 -9999 -9999 -9999 -9999 -9999 -9999 -9999 -9999 -9999 -9999 -9999 -9999 -9999 -9999 -9999 -9999 -9999 -9999 -9999 -9999 -9999 -9999 -9999 -9999 -9999 -9999 -9999 -9999 -9999 -9999 -9999 -9999 -9999 -9999 -9999 -9999 -9999 -9999 -9999 -9999 -9999 -9999 -9999 -9999 -9999 -9999 -9999 -9999 -9999 -9999 -9999 -9999 -9999 -9999 -9999 -9999 -9999 -9999 -9999 -9999 -9999 -9999 -9999 -9999 -9999 -9999 -9999 -9999 -9999 -9999 -9999 -9999 -9999 -9999 -9999 -9999 -9999 -9999 -9999 -9999 33 -38 -87 -114 -149 -147 -137 -127 -124 -118 -91 -98 -85 -89 -90 -88 -80 -64 -63 -59 -59 -62 -57 -54 -46 -57 -59 -56 -54 -52 -51 -46 -50 -56 -58 -71 -69 -86 -96 -103 -104 -103 -103 -86 -75 -63 -76 -78 -76 -75 -81 -88 -117 -140 -143 -151 -154 -162 -142 -133 -131 -128 -100 -86 -85 -104 -124 -129 -123 -103 -86 -78 -69 -93 -86 -53 -78 -76 -83 -91 -101 -111 -101 -119 -140 -157 -137 -207 -379 -529 -703 -864 -965 -1040 -1145 -1245 -1301 -1412 -1533 -1698 -1731 -1846 -1957 -2190 -2475 -2709 -3101 -3419 -3624 -3814 -4165 -4332 -4281 -4416 -4577 -4430 -4487 -4496 -4573 -4624 -4658 -4735 -4775 -4844 -4891 -4899 -4971 -5160 -5170 -5206 -5318 -5335 -5316 -5362 -5398 -5372 -5402 -5427 -5446 -5451 -5498 -5472 -5523 -5581 -5564 -5537 -5554 -5592 -5569 -5585 -5576 -5526 -5486 -5493 -5550 -5574 -5589 -5605 -5613 -5616 -5627 -5612 -5572 -5579 -5624 -5664 -5640 -5614 -5680 -5721 -5750 -5728 -5683 -5685 -5760 -5755 -5731 -5770 -5750 -5673 -5564 -9999
-9999 -3500 -3460 -3752 -3791 -3599 -3401 -3137 -2955 -2879 -2886 -2841 -3103 -3838 -2997 -2835 -2623 -2842 -2817 -2848 -2786 -2975 -3039 -3071 -3203 -3384 -3387 -3367 -3468 -3587 -3657 -3510 -3242 -3285 -3391 -3376 -3431 -3367 -3474 -3648 -3522 -3359 -3296 -3295 -3252 -3162 -3391 -3538 -3404 -3354 -3352 -3456 -3511 -3514 -3473 -3514 -3495 -3458 -3496 -3548 -3599 -3471 -3484 -3565 -3566 -3451 -3476 -3564 -3612 -3680 -3682 -3678 -3716 -3686 -3642 -3701 -3714 -3710 -3612 -3541 -3509 -3515 -3606 -3631 -3745 -3695 -3513 -3350 -3357 -3507 -3520 -3442 -3414 -3391 -3318 -3437 -3516 -3587 -3627 -3703 -3733 -3732 -3773 -3782 -3780 -3782 -3785 -3786 -3791 -3804 -3821 -3825 -3836 -3854 -3864 -3880 -3593 -3270 -2565 -2297 -1999 -1527 -829 -340 -187 -145 -134 -140 -142 -136 -122 -74 -1 23 55 27 -9999 -9999 34 -83 -151 -141 -88 -50 -68 -203 -42 44 -9999 -9999 -9999 -9999 -9999 -9999 -9999 -9999 -9999 -9999 -9999 -9999 -9999 -9999 -9999 -9999 -9999 -9999 -9999 -9999 -9999 -9999 -9999 -9999 -9999 -9999 -9999 -9999 -9999 -9999 -9999 -9999 -9999 -9999 -9999 -9999 -9999 -9999 -9999 -9999 -9999 -9999 -9999 -9999 -9999 -9999 -9999 -9999 -9999 -9999 -9999 -9999 -9999 -9999 -9999 -9999 -9999 -9999 -9999 -9999 -9999 -9999 -9999 -9999 -9999 -9999 -9999 -9999 -9999 -9999 -9999 -9999 -9999 -9999 -9999 -9999 -9999 -9999 -9999 -9999 -9999 -9999 -9999 -9999 -9999 -9999 -9999 -9999 -9999 -9999 -9999 -9999 -5 -51 -93 -125 -160 -151 -152 -152 -155 -127 -102 -96 -95 -94 -87 -88 -75 -68 -73 -64 -64 -58 -55 -54 -56 -58 -54 -51 -50 -52 -53 -49 -59 -57 -67 -86 -91 -90 -85 -96 -103 -106 -102 -73 -72 -69 -70 -69 -63 -60 -86 -109 -122 -129 -116 -147 -153 -151 -99 -91 -113 -129 -112 -84 -87 -102 -124 -105 -117 -91 -90 -77 -65 -75 -76 -70 -93 -114 -147 -118 -96 -110 -106 -117 -129 -141 -217 -370 -561 -790 -900 -1008 -1163 -1257 -1373 -1369 -1422 -1486 -1533 -1701 -1900 -1944 -2048 -2301 -2633 -3052 -3368 -3595 -3780 -3879 -4068 -4201 -4250 -4441 -4549 -4458 -4466 -4489 -4586 -4703 -4722 -4759 -4817 -4887 -4934 -4961 -5015 -5164 -5173 -5262 -5361 -5322 -5347 -5463 -5475 -5422 -5434 -5463 -5526 -5509 -5527 -5544 -5518 -5553 -5561 -5501 -5536 -5639 -5621 -5634 -5660 -5558 -5478 -5473 -5552 -5605 -5640 -5624 -5615 -5622 -5618 -5602 -5580 -5599 -5619 -5656 -5711 -5749 -5769 -5715 -5679 -5709 -5735 -5742 -5742 -5725 -5721 -5639 -5718 -5683 -5697 -9999
-9999 -3090 -3116 -3281 -2986 -2714 -2739 -2745 -2853 -2685 -2444 -2967 -2806 -3704 -3150 -3614 -3540 -3160 -2577 -2716 -2811 -3244 -3270 -3224 -3108 -3061 -3143 -3229 -3220 -3513 -3683 -3479 -3353 -3355 -3264 -3189 -3444 -3549 -3625 -3523 -3378 -3344 -3435 -3541 -3369 -3222 -3375 -3555 -3488 -3455 -3465 -3485 -3443 -3477 -3499 -3493 -3460 -3446 -3448 -3451 -3542 -3472 -3533 -3612 -3559 -3475 -3526 -3568 -3530 -3571 -3563 -3608 -3642 -3665 -3784 -3745 -3629 -3637 -3588 -3588 -3569 -3421 -3565 -3498 -3495 -3429 -3216 -3124 -3203 -3423 -3528 -3463 -3417 -3623 -3672 -3730 -3829 -4010 -3924 -3777 -3749 -3636 -3651 -3745 -3739 -3676 -3664 -3680 -3725 -3755 -3816 -3826 -3841 -3851 -3866 -3883 -3656 -3079 -2462 -2050 -1689 -1294 -696 -321 -175 -149 -133 -136 -135 -132 -109 -68 -9999 -9999 -9999 -9999 -9999 -9999 17 -112 -159 -200 -192 -159 -170 -287 -164 31 -9999 -9999 464 -9999 -9999 -9999 -9999 -9999 -9999 -9999 -9999 -9999 -9999 -9999 -9999 -9999 -9999 -9999 -9999 -9999 -9999 -9999 -9999 -9999 -9999 -9999 -9999 -9999 -9999 -9999 -9999 -9999 -9999 -9999 -9999 -9999 -9999 -9999 -9999 -9999 -9999 -9999 -9999 -9999 -9999 -9999 -9999 -9999 -9999 -9999 -9999 -9999 -9999 -9999 -9999 -9999 -9999 -9999 -9999 -9999 -9999 -9999 -9999 -9999 -9999 -9999 -9999 -9999 -9999 -9999 -9999 -9999 -9999 -9999 -9999 -9999 -9999 -9999 -9999 -9999 -9999 -9999 -9999 -9999 -9999 -9999 -9999 -9999 -9999 -9999 -9999 40 -22 -67 -108 -124 -153 -145 -158 -156 -149 -134 -131 -105 -101 -99 -87 -80 -85 -71 -62 -67 -66 -62 -55 -50 -60 -59 -52 -54 -56 -54 -55 -60 -71 -60 -59 -76 -79 -74 -65 -82 -81 -103 -99 -72 -80 -78 -61 -33 -36 -41 -76 -109 -99 -108 -133 -155 -141 -142 -117 -115 -129 -144 -125 -87 -80 -74 -98 -72 -98 -72 -86 -85 -82 -86 -82 -134 -178 -182 -167 -131 -112 -107 -115 -137 -177 -323 -361 -539 -771 -911 -997 -1058 -1205 -1282 -1374 -1480 -1513 -1631 -1715 -1796 -2011 -2399 -2553 -2763 -3089 -3290 -3459 -3752 -3891 -4026 -4151 -4334 -4508 -4694 -4618 -4574 -4594 -4529 -4566 -4742 -4801 -4803 -4853 -4967 -5050 -5028 -5100 -5186 -5191 -5295 -5379 -5361 -5380 -5462 -5461 -5447 -5427 -5456 -5505 -5523 -5537 -5549 -5536 -5536 -5562 -5556 -5565 -5623 -5626 -5633 -5666 -5625 -5549 -5527 -5582 -5612 -5615 -5596 -5625 -5625 -5625 -5618 -5637 -5644 -5647 -5679 -5733 -5742 -5755 -5657 -5704 -5702 -5739 -5727 -5695 -5668 -5627 -5597 -5691 -5725 -5786 -9999
-9999 -3136 -2862 -3023 -3079 -3073 -3079 -2962 -3050 -3210 -2981 -3391 -3495 -3505 -2588 -3303 -3786 -3596 -3353 -3343 -3243 -3362 -3635 -3493 -3184 -2834 -2746 -3000 -3177 -3333 -3248 -3030 -3085 -3249 -3526 -3452 -3487 -3440 -3424 -3237 -3191 -3329 -3587 -3638 -3472 -3555 -3688 -3680 -3541 -3464 -3467 -3499 -3452 -3464 -3511 -3483 -3454 -3488 -3506 -3493 -3567 -3526 -3534 -3584 -3560 -3559 -3516 -3544 -3523 -3555 -3609 -3664 -3593 -3563 -3676 -3681 -3541 -3589 -3623 -3390 -3232 -3161 -3412 -3276 -3241 -3297 -3378 -3451 -3512 -3704 -3817 -3647 -3632 -3743 -3699 -3524 -3596 -3741 -3679 -3602 -3578 -3430 -3490 -3522 -3514 -3593 -3639 -3643 -3705 -3779 -3819 -3824 -3846 -3852 -3871 -3880 -3587 -2896 -2402 -1883 -1461 -1072 -564 -282 -220 -145 -137 -149 -147 -128 -100 -60 20 -9999 -9999 -9999 -9999 -9999 -9999 15 -119 -216 -298 -284 -289 -279 -299 -245 -131 -19 76 170 -9999 -9999 -9999 -9999 -9999 -9999 -9999 -9999 -9999 -9999 -9999 -9999 -9999 -9999 -9999 -9999 -9999 -9999 -9999 -9999 -9999 -9999 -9999 -9999 -9999 -9999 -9999 -9999 -9999 -9999 -9999 -9999 -9999 -9999 -9999 -9999 -9999 -9999 -9999 -9999 -9999 -9999 -9999 -9999 -9999 -9999 -9999 -9999 -9999 -9999 -9999 -9999 -9999 -9999 -9999 -9999 -9999 -9999 -9999 -9999 -9999 -9999 -9999 -9999 -9999 -9999 -9999 -9999 -9999 -9999 -9999 -9999 -9999 -9999 -9999 -9999 -9999 -9999 -9999 -9999 -9999 -9999 -9999 -9999 -9999 -9999 -9999 -9999 -19 -96 -133 -147 -146 -154 -160 -152 -154 -135 -118 -88 -80 -85 -71 -62 -76 -74 -71 -65 -38 -45 -50 -49 -57 -64 -65 -73 -62 -60 -61 -62 -58 -59 -53 -73 -67 -74 -71 -88 -100 -98 -89 -81 -92 -91 -57 -26 -42 -58 -73 -94 -96 -90 -112 -129 -105 -106 -117 -138 -142 -147 -124 -87 -80 -84 -108 -113 -110 -92 -85 -87 -89 -83 -107 -197 -230 -173 -100 -104 -84 -104 -114 -148 -306 -448 -514 -758 -929 -1016 -1100 -1219 -1337 -1377 -1461 -1549 -1644 -1852 -1940 -1992 -2208 -2398 -2834 -3118 -3572 -3683 -3833 -4000 -4162 -4412 -4461 -4491 -4566 -4612 -4727 -4700 -4704 -4636 -4699 -4847 -4924 -4873 -4925 -5033 -5099 -5070 -5129 -5174 -5202 -5314 -5437 -5449 -5424 -5450 -5489 -5471 -5461 -5494 -5524 -5539 -5557 -5556 -5550 -5538 -5583 -5627 -5620 -5655 -5638 -5627 -5628 -5630 -5623 -5604 -5605 -5599 -5602 -5592 -5622 -5631 -5634 -5625 -5635 -5647 -5638 -5672 -5724 -5718 -5760 -5783 -5732 -5713 -5779 -5692 -5656 -5758 -5792 -5712 -5725 -5754 -5793 -9999
-9999 -3058 -2872 -3118 -3350 -3526 -3474 -3502 -3447 -3425 -3218 -2912 -2715 -2369 -2265 -2518 -3367 -3507 -3108 -3060 -2978 -3087 -3293 -3309 -3206 -3105 -3120 -3251 -3409 -3493 -3371 -3179 -3179 -3296 -3236 -3353 -3258 -3200 -3232 -3265 -3187 -3156 -3509 -3640 -3401 -3385 -3486 -3504 -3546 -3571 -3531 -3516 -3461 -3494 -3562 -3551 -3535 -3585 -3547 -3551 -3552 -3459 -3436 -3419 -3396 -3402 -3472 -3435 -3462 -3460 -3508 -3578 -3521 -3594 -3572 -3626 -3579 -3613 -3833 -3798 -3507 -3300 -3301 -3452 -3615 -3779 -3890 -3953 -3880 -3838 -3701 -3529 -3343 -3302 -3295 -3169 -3194 -3230 -3266 -3483 -3524 -3490 -3410 -3463 -3457 -3553 -3645 -3690 -3723 -3797 -3813 -3821 -3838 -3853 -3869 -3871 -3519 -2805 -2240 -1884 -1585 -1173 -644 -271 -201 -152 -151 -158 -141 -116 -86 -52 69 -9999 -9999 -9999 -9999 -9999 -9999 27 -45 -139 -168 -181 -225 -285 -285 -297 -307 -217 197 286 -9999 -9999 -9999 -9999 -9999 -9999 -9999 -9999 -9999 -9999 -9999 -9999 -9999 -9999 -9999 -9999 -9999 -9999 -9999 -9999 -9999 -9999 -9999 -9999 -9999 -9999 -9999 -9999 -9999 -9999 -9999 -9999 -9999 -9999 -9999 -9999 -9999 -9999 -9999 -9999 -9999 -9999 -9999 -9999 -9999 -9999 -9999 -9999 -9999 -9999 -9999 -9999 -9999 -9999 -9999 -9999 -9999 -9999 -9999 -9999 -9999 -9999 -9999 -9999 -9999 -9999 -9999 -9999 -9999 -9999 -9999 -9999 -9999 -9999 -9999 -9999 -9999 -9999 -9999 -9999 -9999 -9999 -9999 -9999 -9999 -9999 -9999 -9999 -9999 -31 -87 -115 -123 -148 -163 -172 -175 -152 -51 -29 -20 17 44 -9999 -15 -56 -71 -62 -44 -55 -59 -59 -54 -56 -66 -64 -61 -62 -64 -66 -59 -60 -59 -69 -78 -83 -82 -91 -99 -84 -77 -75 -85 -106 -105 -67 -51 -55 -70 -82 -82 -49 -69 -68 -44 -74 -102 -125 -124 -144 -135 -96 -85 -81 -94 -96 -92 -74 -66 -87 -112 -110 -91 -151 -164 -113 -82 -88 -68 -128 -203 -289 -433 -710 -817 -982 -1103 -1196 -1283 -1322 -1410 -1489 -1588 -1695 -1789 -1871 -2013 -2146 -2417 -2671 -2969 -3376 -3552 -3699 -4013 -4235 -4186 -4244 -4410 -4510 -4605 -4668 -4695 -4605 -4666 -4787 -4814 -4830 -4889 -4911 -4921 -5038 -5121 -5129 -5138 -5133 -5197 -5346 -5437 -5447 -5469 -5486 -5501 -5517 -5501 -5516 -5547 -5580 -5585 -5574 -5569 -5575 -5568 -5542 -5593 -5689 -5627 -5614 -5641 -5635 -5626 -5623 -5606 -5611 -5626 -5618 -5632 -5632 -5652 -5656 -5665 -5667 -5653 -5659 -5678 -5689 -5731 -5771 -5738 -5698 -5724 -5669 -5653 -5728 -5752 -5721 -5751 -5780 -5815 -9999
-9999 -3181 -3052 -3220 -3473 -3635 -3642 -3737 -3143 -2896 -3138 -2697 -2636 -2485 -2535 -2621 -2952 -3291 -2932 -2811 -2884 -2888 -3037 -3157 -3034 -3097 -3432 -3454 -3299 -3273 -3368 -3286 -3235 -3498 -3268 -3231 -3169 -3267 -3227 -3328 -3378 -3302 -3665 -3829 -3438 -3266 -3453 -3566 -3587 -3557 -3546 -3560 -3545 -3536 -3492 -3482 -3505 -3495 -3446 -3505 -3523 -3431 -3361 -3332 -3426 -3482 -3406 -3325 -3404 -3424 -3450 -3456 -3420 -3519 -3477 -3466 -3574 -3639 -3865 -3972 -3911 -3754 -3672 -3636 -3671 -3666 -3633 -3630 -3584 -3629 -3610 -3504 -3268 -3048 -3067 -3074 -3098 -3088 -3114 -3459 -3531 -3531 -3460 -3501 -3488 -3569 -3630 -3706 -3745 -3798 -3812 -3819 -3828 -3855 -3868 -3865 -3478 -2788 -2195 -1888 -1496 -1136 -532 -213 -187 -163 -167 -159 -135 -102 -61 115 -9999 -9999 -9999 -9999 -9999 -9999 -9999 -9999 5 -104 -99 -130 -192 -265 -214 -136 -103 125 -86 25 -9999 -9999 -9999 -9999 -9999 -9999 -9999 -9999 -9999 -9999 -9999 -9999 -9999 -9999 -9999 -9999 -9999 -9999 -9999 -9999 -9999 -9999 -9999 -9999 -9999 -9999 -9999 -9999 -9999 -9999 -9999 -9999 -9999 -9999 -9999 -9999 -9999 -9999 -9999 -9999 -9999 -9999 -9999 -9999 -9999 -9999 -9999 -9999 -9999 -9999 -9999 -9999 -9999 -9999 -9999 -9999 -9999 -9999 -9999 -9999 -9999 -9999 -9999 -9999 -9999 -9999 -9999 -9999 -9999 -9999 -9999 -9999 -9999 -9999 -9999 -9999 -9999 -9999 -9999 -9999 -9999 -9999 -9999 -9999 -9999 -9999 -9999 -9999 -9999 -9999 51 29 -5 -42 -61 -93 -81 -18 8 27 -9999 -9999 -9999 -9999 22 -16 -44 -53 -60 -77 -62 -57 -57 -60 -70 -62 -62 -70 -58 -58 -58 -56 -57 -61 -68 -80 -81 -77 -98 -100 -96 -92 -100 -108 -111 -105 -66 -65 -68 -70 -87 -33 -15 -25 -32 -54 -69 -89 -68 -92 -99 -92 -93 -100 -107 -90 -89 -45 -76 -97 -100 -158 -116 -97 -96 -92 -92 -55 -38 -196 -422 -554 -727 -907 -1008 -1138 -1252 -1320 -1406 -1432 -1510 -1585 -1711 -1809 -1887 -2018 -2205 -2363 -2680 -3026 -3253 -3547 -3657 -3744 -3887 -3987 -4095 -4270 -4438 -4517 -4575 -4742 -4701 -4675 -4703 -4800 -4885 -4853 -4934 -4988 -4990 -5091 -5166 -5229 -5254 -5188 -5201 -5341 -5440 -5448 -5449 -5477 -5500 -5521 -5504 -5527 -5577 -5569 -5593 -5584 -5565 -5587 -5607 -5587 -5599 -5621 -5604 -5622 -5655 -5678 -5663 -5645 -5622 -5541 -5529 -5613 -5641 -5645 -5652 -5660 -5703 -5706 -5673 -5678 -5702 -5678 -5650 -5655 -5665 -5664 -5651 -5656 -5655 -5678 -5690 -5684 -5742 -5806 -5827 -9999
-9999 -3429 -3367 -3304 -3554 -3566 -3241 -3249 -3082 -2886 -3057 -3035 -2778 -2680 -2722 -2624 -2745 -3086 -2798 -2686 -2896 -2766 -2934 -3160 -3110 -3048 -3233 -3318 -3234 -3105 -3134 -3114 -3058 -3215 -3179 -3205 -3173 -3285 -3221 -3271 -3400 -3276 -3502 -3619 -3259 -3386 -3611 -3671 -3568 -3402 -3481 -3541 -3451 -3397 -3421 -3392 -3379 -3361 -3416 -3480 -3466 -3485 -3478 -3447 -3573 -3590 -3348 -3274 -3370 -3455 -3523 -3547 -3569 -3663 -3648 -3657 -3684 -3791 -3801 -3698 -3707 -3711 -3645 -3468 -3367 -3291 -3338 -3534 -3611 -3439 -3268 -3074 -3076 -3032 -2980 -3100 -3251 -3243 -3274 -3504 -3532 -3523 -3547 -3549 -3572 -3597 -3616 -3696 -3725 -3794 -3812 -3814 -3831 -3844 -3853 -3843 -3348 -2497 -2118 -1739 -1346 -965 -432 -182 -258 -206 -180 -167 -140 -92 -44 -9999 -9999 -9999 -9999 -9999 -9999 -9999 -9999 96 44 -51 -40 20 -87 -192 -144 50 -9999 -9999 375 65 -9999 -9999 -9999 -9999 -9999 -9999 -9999 -9999 -9999 -9999 -9999 -9999 -9999 -9999 -9999 -9999 -9999 -9999 -9999 -9999 -9999 -9999 -9999 -9999 -9999 -9999 -9999 -9999 -9999 -9999 -9999 -9999 -9999 -9999 -9999 -9999 -9999 -9999 -9999 -9999 -9999 -9999 -9999 -9999 -9999 -9999 -9999 -9999 -9999 -9999 -9999 -9999 -9999 -9999 -9999 -9999 -9999 -9999 -9999 -9999 -9999 -9999 -9999 -9999 -9999 -9999 -9999 -9999 -9999 -9999 -9999 -9999 -9999 -9999 -9999 -9999 -9999 -9999 -9999 -9999 -9999 -9999 -9999 -9999 -9999 -9999 -9999 -9999 -9999 -9999 -9999 -9999 -9999 77 23 -35 -43 -44 -38 -25 -9999 -9999 -9999 -9999 32 0 -36 -45 -50 -61 -59 -58 -66 -59 -67 -66 -67 -71 -70 -78 -73 -79 -77 -74 -73 -91 -93 -66 -92 -101 -106 -105 -101 -101 -110 -119 -91 -99 -69 -80 -99 -46 -39 -24 -73 -90 -78 -87 -97 -109 -68 -60 -92 -84 -126 -107 -88 -36 -100 -149 -178 -230 -200 -141 -95 -115 -133 -155 -237 -464 -690 -844 -1041 -1089 -1122 -1254 -1338 -1457 -1522 -1536 -1587 -1720 -1844 -1865 -2000 -2221 -2474 -2668 -2982 -3149 -3292 -3426 -3572 -3771 -3894 -4050 -4215 -4379 -4519 -4544 -4595 -4670 -4731 -4761 -4816 -4989 -5028 -4972 -5084 -5075 -5041 -5116 -5213 -5332 -5365 -5296 -5217 -5254 -5454 -5484 -5396 -5438 -5535 -5543 -5550 -5582 -5598 -5587 -5604 -5584 -5506 -5524 -5603 -5620 -5580 -5592 -5640 -5650 -5650 -5675 -5680 -5644 -5657 -5619 -5604 -5656 -5643 -5685 -5664 -5631 -5658 -5675 -5682 -5722 -5797 -5717 -5624 -5611 -5644 -5647 -5652 -5598 -5570 -5616 -5667 -5683 -5701 -5748 -5785 -9999
-9999 -3376 -3528 -3542 -3670 -3544 -3145 -3024 -3061 -3078 -3226 -3234 -2957 -2835 -2893 -2610 -2663 -3110 -2916 -2557 -2899 -2747 -2822 -3245 -3315 -3120 -3103 -3255 -3273 -3138 -3084 -3082 -3007 -3009 -3129 -3282 -3316 -3400 -3228 -3360 -3580 -3387 -3222 -3400 -3503 -3658 -3673 -3578 -3512 -3505 -3491 -3488 -3376 -3217 -3311 -3352 -3376 -3343 -3336 -3403 -3461 -3541 -3486 -3389 -3548 -3636 -3505 -3400 -3514 -3539 -3669 -3790 -3828 -3807 -3648 -3533 -3397 -3487 -3557 -3463 -3479 -3549 -3516 -3395 -3394 -3554 -3703 -3579 -3413 -3214 -3109 -2945 -2963 -3051 -2951 -3078 -3307 -3331 -3362 -3521 -3560 -3490 -3515 -3519 -3590 -3580 -3583 -3694 -3743 -3792 -3806 -3806 -3822 -3822 -3824 -3775 -3109 -2406 -2048 -1575 -1207 -676 -289 -314 -379 -215 -181 -171 -140 -92 -27 -9999 -9999 -9999 -9999 -9999 126 77 -11 -54 -70 -96 -129 -95 -144 -203 -250 -94 -9999 -9999 767 -21 -9999 -9999 -9999 -9999 -9999 -9999 -9999 -9999 -9999 -9999 -9999 -9999 -9999 -9999 -9999 -9999 -9999 -9999 -9999 -9999 -9999 -9999 -9999 -9999 -9999 -9999 -9999 -9999 -9999 -9999 -9999 -9999 -9999 -9999 -9999 -9999 -9999 -9999 -9999 -9999 -9999 -9999 -9999 -9999 -9999 -9999 -9999 -9999 -9999 -9999 -9999 -9999 -9999 -9999 -9999 -9999 -9999 -9999 -9999 -9999 -9999 -9999 -9999 -9999 -9999 -9999 -9999 -9999 -9999 -9999 -9999 -9999 -9999 -9999 -9999 -9999 -9999 -9999 -9999 -9999 -9999 -9999 -9999 -9999 -9999 -9999 -9999 -9999 -9999 -9999 -9999 -9999 -9999 45 -26 -41 -39 -27 -34 -26 23 -9999 -9999 -9999 -9999 6 -32 -46 -59 -65 -61 -68 -63 -66 -65 -66 -71 -70 -78 -74 -75 -81 -65 -54 -74 -85 -96 -73 -74 -93 -97 -100 -96 -97 -102 -110 -104 -122 -81 -68 -83 -79 -87 -92 -103 -100 -107 -110 -111 -83 -45 -69 -107 -104 -103 -90 -94 -89 -144 -179 -223 -209 -177 -134 -103 -120 -156 -328 -520 -752 -925 -1042 -1227 -1299 -1350 -1351 -1292 -1035 -1695 -1749 -1713 -1863 -1961 -2059 -2188 -2461 -2730 -2924 -3123 -3209 -3335 -3517 -3678 -3866 -4034 -4194 -4349 -4482 -4587 -4608 -4633 -4652 -4717 -4766 -4839 -5010 -4999 -5015 -5089 -5115 -5159 -5174 -5209 -5266 -5269 -5278 -5284 -5270 -5405 -5449 -5336 -5411 -5513 -5562 -5583 -5527 -5586 -5591 -5617 -5576 -5494 -5539 -5634 -5626 -5588 -5650 -5715 -5663 -5653 -5673 -5656 -5606 -5627 -5672 -5668 -5673 -5630 -5673 -5653 -5594 -5599 -5611 -5634 -5715 -5761 -5698 -5643 -5637 -5659 -5658 -5645 -5630 -5588 -5577 -5606 -5656 -5682 -5683 -5737 -9999
-9999 -3122 -3329 -3377 -3225 -3184 -3286 -3287 -3160 -3143 -3260 -3281 -3099 -2869 -2818 -2668 -2627 -3334 -3198 -2529 -2826 -2861 -2830 -3310 -3298 -3105 -3164 -3321 -3255 -3079 -3006 -3112 -3163 -3140 -3251 -3294 -3232 -3182 -3126 -3219 -3406 -3295 -3273 -3480 -3554 -3544 -3516 -3413 -3407 -3440 -3275 -3316 -3394 -3262 -3265 -3324 -3411 -3484 -3504 -3501 -3532 -3601 -3590 -3450 -3501 -3552 -3502 -3458 -3442 -3524 -3644 -3715 -3646 -3585 -3489 -3376 -3339 -3366 -3480 -3535 -3565 -3518 -3481 -3439 -3527 -3638 -3669 -3616 -3385 -3273 -3253 -3226 -3120 -3115 -3022 -3114 -3304 -3409 -3469 -3545 -3553 -3492 -3518 -3559 -3604 -3627 -3654 -3690 -3738 -3781 -3786 -3797 -3793 -3783 -3767 -3755 -3156 -2345 -1894 -1553 -1286 -979 -596 -617 -664 -486 -200 -173 -141 -105 7 -9999 -9999 -9999 -9999 -9999 64 12 44 -62 -62 -35 -131 -204 -236 -235 -233 -232 -46 -9999 -9999 284 -9999 -9999 -9999 -9999 -9999 -9999 -9999 -9999 -9999 -9999 -9999 -9999 -9999 -9999 -9999 -9999 -9999 -9999 -9999 -9999 -9999 -9999 -9999 -9999 -9999 -9999 -9999 -9999 -9999 -9999 -9999 -9999 -9999 -9999 -9999 -9999 -9999 -9999 -9999 -9999 -9999 -9999 -9999 -9999 -9999 -9999 -9999 -9999 -9999 -9999 -9999 -9999 -9999 -9999 -9999 -9999 -9999 -9999 -9999 -9999 -9999 -9999 -9999 -9999 -9999 -9999 -9999 -9999 -9999 -9999 -9999 -9999 -9999 -9999 -9999 -9999 -9999 -9999 -9999 -9999 -9999 -9999 -9999 -9999 -9999 -9999 -9999 -9999 -9999 -9999 -9999 -9999 -9999 56 46 42 60 -9999 76 62 -9999 -9999 -9999 -9999 -9999 12 -36 -51 -55 -63 -71 -70 -77 -74 -68 -72 -74 -75 -79 -83 -84 -72 -63 -44 -50 -69 -91 -78 -41 -81 -91 -90 -90 -88 -85 -85 -87 -103 -83 -72 -94 -116 -104 -126 -131 -117 -124 -109 -96 -84 -69 -41 -62 -105 -92 -46 -69 -109 -152 -194 -227 -113 -90 -87 -94 -94 -165 -518 -833 -1063 -1209 -1284 -1362 -1398 -1434 -1468 -1487 -1417 -1664 -1858 -1896 -2014 -2058 -2156 -2380 -2665 -2862 -2981 -3111 -3305 -3433 -3634 -3811 -3969 -4090 -4301 -4429 -4575 -4664 -4655 -4651 -4703 -4760 -4824 -4871 -4916 -4942 -4990 -5063 -5166 -5259 -5237 -5211 -5202 -5262 -5294 -5274 -5286 -5385 -5455 -5446 -5468 -5498 -5557 -5612 -5592 -5646 -5654 -5645 -5597 -5552 -5571 -5626 -5673 -5678 -5680 -5653 -5613 -5642 -5663 -5638 -5623 -5630 -5667 -5709 -5688 -5668 -5694 -5673 -5627 -5621 -5609 -5609 -5695 -5708 -5684 -5645 -5650 -5712 -5663 -5630 -5680 -5678 -5656 -5622 -5628 -5668 -5673 -5715 -9999
-9999 -3112 -3322 -3315 -3041 -3053 -3219 -3384 -3360 -3170 -3142 -3259 -3231 -2917 -2692 -2811 -2558 -3388 -3481 -2605 -2692 -2965 -2896 -3301 -3140 -3234 -3329 -3478 -3337 -3094 -2929 -3061 -3300 -3283 -3135 -2887 -2855 -2957 -2939 -2989 -3089 -3064 -2994 -3080 -3317 -3490 -3445 -3401 -3604 -3710 -3467 -3416 -3528 -3404 -3380 -3536 -3570 -3621 -3679 -3580 -3558 -3590 -3676 -3522 -3409 -3325 -3281 -3328 -3381 -3425 -3535 -3542 -3466 -3439 -3462 -3445 -3453 -3488 -3520 -3559 -3514 -3469 -3531 -3574 -3558 -3585 -3650 -3579 -3528 -3518 -3575 -3526 -3452 -3369 -3217 -3259 -3352 -3478 -3501 -3529 -3548 -3506 -3531 -3569 -3597 -3619 -3649 -3687 -3729 -3776 -3772 -3776 -3765 -3743 -3717 -3681 -3280 -2602 -1728 -1479 -1387 -1248 -1127 -1074 -1048 -904 -596 -514 -250 -146 -39 -9999 -9999 -9999 -9999 -9999 50 -10 -53 -29 -108 -108 -113 -108 -106 -159 -124 172 406 283 381 -9999 -9999 -9999 -9999 -9999 -9999 -9999 -9999 -9999 -9999 -9999 -9999 -9999 -9999 -9999 -9999 -9999 -9999 -9999 -9999 -9999 -9999 -9999 -9999 -9999 -9999 -9999 -9999 -9999 -9999 -9999 -9999 -9999 -9999 -9999 -9999 -9999 -9999 -9999 -9999 -9999 -9999 -9999 -9999 -9999 -9999 -9999 -9999 -9999 -9999 -9999 -9999 -9999 -9999 -9999 -9999 -9999 -9999 -9999 -9999 -9999 -9999 -9999 -9999 -9999 -9999 -9999 -9999 -9999 -9999 -9999 -9999 -9999 -9999 -9999 -9999 -9999 -9999 -9999 -9999 -9999 -9999 -9999 -9999 -9999 -9999 -9999 -9999 -9999 -9999 -9999 -9999 76 -7 -59 -57 -50 -14 58 -9999 -9999 -9999 -9999 -9999 -9999 -9999 32 -36 -65 -64 -63 -67 -75 -74 -71 -70 -60 -70 -79 -78 -85 -84 -78 -63 -58 -73 -85 -91 -88 -65 -80 -83 -80 -81 -79 -76 -78 -102 -127 -72 -49 -82 -83 -63 -90 -131 -111 -112 -82 -49 -44 -55 -59 -80 -89 -88 -54 -103 -152 -158 -161 -127 -27 -29 -19 -43 -223 -491 -760 -1092 -1253 -1354 -1429 -1473 -1466 -1489 -1571 -1715 -1730 -1830 -1931 -1994 -2150 -2202 -2310 -2828 -2909 -2963 -3097 -3370 -3388 -3548 -3725 -3936 -4097 -4296 -4420 -4448 -4611 -4637 -4636 -4682 -4744 -4811 -4861 -4908 -4962 -5012 -5033 -5083 -5171 -5208 -5240 -5241 -5184 -5222 -5302 -5194 -5243 -5387 -5451 -5486 -5505 -5499 -5509 -5542 -5594 -5642 -5644 -5666 -5686 -5637 -5591 -5563 -5592 -5658 -5621 -5607 -5631 -5656 -5670 -5654 -5648 -5650 -5696 -5719 -5676 -5697 -5720 -5705 -5673 -5669 -5696 -5694 -5684 -5669 -5649 -5615 -5612 -5680 -5657 -5619 -5664 -5707 -5720 -5677 -5661 -5681 -5697 -5734 -9999
-9999 -3294 -3341 -3318 -3216 -3088 -2998 -3284 -3440 -3222 -3119 -3216 -3278 -3038 -2718 -2747 -2560 -2874 -3621 -2920 -2550 -2901 -2969 -3325 -3249 -3204 -3373 -3513 -3378 -3094 -2931 -3027 -3093 -2932 -2749 -2602 -2630 -2791 -2913 -3170 -3047 -3027 -2965 -3189 -3566 -3607 -3424 -3395 -3490 -3523 -3538 -3457 -3448 -3260 -3134 -3344 -3412 -3459 -3547 -3470 -3475 -3499 -3559 -3462 -3360 -3357 -3321 -3414 -3459 -3426 -3470 -3489 -3487 -3511 -3511 -3491 -3473 -3505 -3533 -3519 -3566 -3505 -3563 -3649 -3570 -3520 -3600 -3574 -3556 -3554 -3444 -3245 -3408 -3523 -3422 -3430 -3467 -3477 -3460 -3542 -3551 -3521 -3536 -3561 -3591 -3614 -3642 -3685 -3726 -3762 -3773 -3766 -3753 -3731 -3696 -3567 -2652 -2057 -1641 -1414 -1166 -1050 -927 -606 -334 -186 -172 -172 -160 -78 -51 -9999 -9999 -9999 -9999 44 13 43 -45 -48 -89 -15 -54 -111 -18 -128 -59 -9999 -9999 -9999 -9999 -9999 -9999 -9999 -9999 -9999 -9999 -9999 -9999 -9999 -9999 -9999 -9999 -9999 -9999 -9999 -9999 -9999 -9999 -9999 -9999 -9999 -9999 -9999 -9999 -9999 -9999 -9999 -9999 -9999 -9999 -9999 -9999 -9999 -9999 -9999 -9999 -9999 -9999 -9999 -9999 -9999 -9999 -9999 -9999 -9999 -9999 -9999 -9999 -9999 -9999 -9999 -9999 -9999 -9999 -9999 -9999 -9999 -9999 -9999 -9999 -9999 -9999 -9999 -9999 -9999 -9999 -9999 -9999 -9999 -9999 -9999 -9999 -9999 -9999 -9999 -9999 -9999 -9999 -9999 -9999 -9999 -9999 -9999 -9999 -9999 -9999 -9999 -9999 -9999 -9999 42 -5 -44 -106 -132 -138 -131 -110 -48 -9999 -9999 -9999 -9999 -9999 -9999 -9999 41 -50 -80 -76 -73 -70 -75 -75 -74 -74 -68 -72 -78 -79 -84 -81 -80 -74 -76 -77 -81 -83 -81 -78 -81 -77 -70 -70 -79 -74 -79 -105 -106 -50 -24 -56 -63 -74 -78 -99 -88 -114 -90 -29 -51 -60 -85 -92 -82 -136 -96 -136 -149 -137 -79 -33 -14 -8 -66 -295 -590 -841 -1024 -1213 -1356 -1412 -1491 -1580 -1568 -1571 -1637 -1813 -1888 -1899 -1997 -2132 -2201 -2498 -2548 -2685 -2805 -3034 -3297 -3591 -3691 -3837 -3857 -4036 -4258 -4483 -4495 -4549 -4660 -4625 -4634 -4663 -4737 -4853 -4886 -4901 -4950 -5008 -5064 -5117 -5168 -5217 -5254 -5374 -5361 -5368 -5362 -5314 -5351 -5428 -5468 -5489 -5498 -5531 -5561 -5543 -5563 -5557 -5632 -5675 -5680 -5632 -5599 -5572 -5598 -5724 -5708 -5652 -5690 -5716 -5703 -5692 -5679 -5676 -5718 -5706 -5668 -5673 -5707 -5715 -5686 -5687 -5760 -5781 -5673 -5640 -5603 -5585 -5592 -5605 -5617 -5618 -5606 -5632 -5664 -5651 -5651 -5649 -5610 -5649 -9999
-9999 -3235 -3209 -3280 -3310 -3055 -2895 -3166 -3257 -3097 -3008 -3039 -3186 -3091 -2778 -2698 -2648 -2632 -3379 -3358 -2716 -2877 -2997 -3354 -3196 -3055 -3113 -3147 -3061 -2998 -3059 -3072 -2732 -2349 -2438 -2743 -2865 -2868 -3104 -3289 -3225 -3273 -3285 -3447 -3701 -3573 -3402 -3332 -3203 -3240 -3500 -3501 -3547 -3547 -3453 -3611 -3672 -3576 -3537 -3395 -3431 -3487 -3489 -3459 -3459 -3499 -3453 -3523 -3526 -3470 -3498 -3528 -3529 -3530 -3536 -3541 -3585 -3638 -3617 -3602 -3671 -3560 -3547 -3616 -3577 -3534 -3594 -3587 -3570 -3575 -3400 -3189 -3359 -3554 -3538 -3543 -3497 -3465 -3436 -3527 -3544 -3540 -3543 -3554 -3583 -3612 -3637 -3671 -3720 -3754 -3763 -3755 -3751 -3742 -3711 -3340 -2622 -2090 -1630 -1555 -1185 -844 -566 -230 -140 -149 -152 -132 -93 -67 -40 -9999 -9999 -9999 -9999 -9999 118 -40 -63 -93 -124 -121 -91 -35 2 -26 -95 124 -9999 -9999 -9999 -9999 -9999 -9999 -9999 -9999 -9999 -9999 -9999 -9999 -9999 -9999 -9999 -9999 -9999 -9999 -9999 -9999 -9999 -9999 -9999 -9999 -9999 -9999 -9999 -9999 -9999 -9999 -9999 -9999 -9999 -9999 -9999 -9999 -9999 -9999 -9999 -9999 -9999 -9999 -9999 -9999 -9999 -9999 -9999 -9999 -9999 -9999 -9999 -9999 -9999 -9999 -9999 -9999 -9999 -9999 -9999 -9999 -9999 -9999 -9999 -9999 -9999 -9999 -9999 -9999 -9999 -9999 -9999 -9999 -9999 -9999 -9999 -9999 -9999 -9999 -9999 -9999 -9999 -9999 -9999 -9999 -9999 -9999 -9999 -9999 -9999 -9999 -9999 -9999 67 -50 -88 -92 -111 -130 -146 -154 -145 -82 -9999 -9999 -9999 -9999 -9999 -9999 51 12 -63 -76 -75 -77 -72 -84 -78 -73 -78 -74 -80 -82 -77 -73 -74 -84 -84 -81 -81 -86 -87 -83 -78 -78 -77 -72 -73 -88 -92 -96 -110 -115 -80 -23 -62 -84 -95 -57 -47 -55 -83 -94 -63 -75 -88 -91 -72 -96 -107 -91 -142 -158 -93 -31 -25 -17 -16 -203 -601 -857 -1035 -1192 -1326 -1432 -1475 -1548 -1648 -1708 -1712 -1731 -1866 -1971 -2056 -2134 -2338 -2466 -2480 -2546 -2692 -2874 -3079 -3274 -3440 -3655 -3954 -4190 -4233 -4414 -4538 -4503 -4594 -4638 -4648 -4662 -4683 -4810 -4914 -4929 -4936 -4940 -4969 -5057 -5083 -5134 -5197 -5307 -5349 -5355 -5484 -5457 -5454 -5440 -5494 -5578 -5576 -5520 -5555 -5595 -5577 -5569 -5557 -5646 -5638 -5570 -5591 -5609 -5616 -5634 -5706 -5724 -5691 -5711 -5704 -5698 -5743 -5744 -5711 -5711 -5708 -5686 -5698 -5734 -5700 -5686 -5715 -5749 -5740 -5679 -5688 -5649 -5606 -5602 -5610 -5603 -5593 -5576 -5598 -5616 -5612 -5624 -5623 -5604 -5611 -9999
-9999 -3052 -3091 -3273 -3386 -3165 -2963 -3105 -3206 -3128 -2975 -2972 -3117 -3106 -2871 -2709 -2641 -2397 -2858 -3695 -2916 -2767 -2896 -2973 -3170 -3625 -3496 -3376 -3301 -3377 -3456 -3439 -3324 -3154 -3338 -3592 -3518 -3262 -3058 -3274 -3301 -3379 -3395 -3493 -3955 -4100 -3913 -3784 -3784 -3810 -3977 -3988 -3873 -3742 -3548 -3514 -3484 -3344 -3284 -3241 -3388 -3479 -3549 -3583 -3491 -3453 -3429 -3538 -3532 -3469 -3497 -3502 -3533 -3539 -3606 -3633 -3593 -3615 -3650 -3634 -3636 -3561 -3563 -3631 -3678 -3641 -3600 -3573 -3570 -3545 -3535 -3536 -3545 -3558 -3520 -3510 -3528 -3537 -3481 -3518 -3543 -3542 -3551 -3551 -3585 -3622 -3641 -3664 -3710 -3749 -3743 -3747 -3749 -3750 -3725 -3370 -2621 -2303 -1632 -1135 -874 -606 -322 -165 -141 -147 -136 -114 -83 -69 -24 -9999 -9999 -9999 -9999 -9999 -9999 -9999 58 -46 -134 -125 -112 -102 -66 -13 -80 -9999 -9999 -9999 -9999 -9999 -9999 -9999 -9999 -9999 -9999 -9999 -9999 -9999 -9999 -9999 -9999 -9999 -9999 -9999 -9999 -9999 -9999 -9999 -9999 -9999 -9999 -9999 -9999 -9999 -9999 -9999 -9999 -9999 -9999 -9999 -9999 -9999 -9999 -9999 -9999 -9999 -9999 -9999 -9999 -9999 -9999 -9999 -9999 -9999 -9999 -9999 -9999 -9999 -9999 -9999 -9999 -9999 -9999 -9999 -9999 -9999 -9999 -9999 -9999 -9999 -9999 -9999 -9999 -9999 -9999 -9999 -9999 -9999 -9999 -9999 -9999 -9999 -9999 -9999 -9999 -9999 -9999 -9999 -9999 -9999 -9999 -9999 -9999 -9999 -9999 -9999 -9999 -9999 53 15 -30 -74 -97 -130 -144 -144 -138 -89 53 -9999 -9999 -9999 68 42 21 -32 -76 -72 -75 -72 -66 -81 -75 -70 -75 -73 -75 -74 -80 -79 -76 -87 -89 -94 -96 -92 -82 -85 -89 -71 -49 -72 -87 -97 -103 -101 -115 -118 -97 -51 -62 -111 -109 -66 -53 -72 -71 -97 -78 -98 -98 -107 -83 -87 -144 -127 -100 -83 -51 -35 -51 -36 -142 -507 -862 -1081 -1184 -1283 -1379 -1450 -1536 -1587 -1629 -1706 -1775 -1807 -2034 -2157 -2183 -2135 -2276 -2671 -2473 -2633 -2819 -3051 -3250 -3419 -3543 -3744 -4013 -4267 -4352 -4496 -4638 -4545 -4654 -4744 -4712 -4704 -4766 -4896 -4963 -4975 -4984 -4981 -5000 -5083 -5117 -5108 -5224 -5391 -5360 -5331 -5409 -5372 -5413 -5436 -5462 -5511 -5555 -5540 -5573 -5628 -5602 -5598 -5616 -5662 -5644 -5602 -5634 -5678 -5710 -5707 -5717 -5690 -5696 -5703 -5697 -5737 -5767 -5754 -5724 -5740 -5753 -5715 -5717 -5744 -5716 -5690 -5703 -5694 -5686 -5673 -5695 -5667 -5616 -5604 -5622 -5603 -5577 -5576 -5591 -5593 -5584 -5580 -5606 -5609 -5605 -9999
-9999 -3169 -3242 -3393 -3355 -3146 -3046 -3119 -3259 -3289 -3188 -3197 -3248 -3184 -2833 -2813 -2778 -2602 -2909 -3597 -2991 -2581 -2703 -2698 -2878 -3531 -3698 -3535 -3352 -3273 -3171 -3166 -3439 -3493 -3433 -3327 -3251 -3310 -3458 -3658 -3711 -3647 -3474 -3496 -3863 -3853 -3605 -3611 -3632 -3495 -3641 -3758 -3498 -3365 -3239 -3234 -3326 -3326 -3270 -3312 -3455 -3454 -3473 -3537 -3505 -3421 -3435 -3545 -3520 -3491 -3515 -3527 -3583 -3560 -3570 -3596 -3587 -3592 -3649 -3641 -3592 -3568 -3571 -3590 -3609 -3588 -3586 -3572 -3570 -3564 -3567 -3547 -3489 -3450 -3499 -3522 -3528 -3527 -3512 -3524 -3477 -3445 -3550 -3560 -3589 -3615 -3628 -3652 -3711 -3733 -3733 -3739 -3742 -3745 -3738 -3503 -2450 -1762 -1338 -850 -590 -237 -140 -132 -145 -141 -128 -105 -81 -55 4 -9999 -9999 -9999 -9999 -9999 105 33 40 -13 -76 -124 -168 -182 -185 -150 -137 23 412 -9999 -9999 -9999 -9999 -9999 -9999 -9999 -9999 -9999 -9999 -9999 -9999 -9999 -9999 -9999 -9999 -9999 -9999 -9999 -9999 -9999 -9999 -9999 -9999 -9999 -9999 -9999 -9999 -9999 -9999 -9999 -9999 -9999 -9999 -9999 -9999 -9999 -9999 -9999 -9999 -9999 -9999 -9999 -9999 -9999 -9999 -9999 -9999 -9999 -9999 -9999 -9999 -9999 -9999 -9999 -9999 -9999 -9999 -9999 -9999 -9999 -9999 -9999 -9999 -9999 -9999 -9999 -9999 -9999 -9999 -9999 -9999 -9999 -9999 -9999 -9999 -9999 -9999 -9999 -9999 -9999 -9999 -9999 -9999 -9999 -9999 -9999 -9999 -9999 -9999 -9999 -9999 -9999 88 55 -3 -85 -106 -114 -119 -124 -47 28 8 -22 -50 -63 -72 -76 -76 -74 -85 -78 -82 -87 -69 -76 -69 -68 -77 -77 -89 -96 -94 -86 -87 -110 -116 -115 -97 -88 -94 -95 -59 -76 -81 -104 -116 -119 -118 -117 -88 -73 -61 -88 -93 -91 -64 -59 -19 -89 -95 -103 -99 -144 -123 -108 -152 -117 -94 -72 -40 -27 -35 -108 -375 -804 -1051 -1151 -1209 -1313 -1418 -1457 -1595 -1671 -1706 -1687 -1878 -1519 -1888 -2126 -2198 -2316 -2386 -2545 -2723 -2835 -3016 -3226 -3399 -3511 -3658 -3929 -4163 -4276 -4392 -4492 -4619 -4740 -4846 -4837 -4788 -4893 -4930 -4925 -4938 -5027 -5091 -5103 -5122 -5213 -5292 -5228 -5273 -5346 -5320 -5342 -5377 -5355 -5362 -5423 -5502 -5525 -5527 -5529 -5540 -5578 -5617 -5650 -5666 -5666 -5729 -5651 -5709 -5739 -5685 -5694 -5786 -5798 -5696 -5667 -5699 -5795 -5797 -5749 -5720 -5753 -5749 -5720 -5734 -5735 -5710 -5665 -5652 -5646 -5648 -5646 -5639 -5641 -5621 -5598 -5595 -5586 -5574 -5575 -5584 -5576 -5553 -5563 -5581 -5588 -5589 -9999
-9999 -3458 -3585 -3529 -3325 -3177 -3142 -3167 -3394 -3590 -3525 -3408 -3517 -3457 -3061 -3183 -2964 -2978 -3061 -3721 -3360 -2494 -2801 -2727 -3099 -3828 -4036 -3847 -3646 -3352 -3134 -3098 -3145 -3082 -3007 -2945 -2898 -2923 -3084 -3257 -3393 -3314 -3090 -3064 -3328 -3366 -3229 -3251 -3120 -3100 -3491 -3724 -3374 -3250 -3238 -3246 -3342 -3401 -3304 -3307 -3393 -3394 -3455 -3488 -3479 -3439 -3469 -3549 -3481 -3464 -3493 -3507 -3545 -3548 -3549 -3548 -3558 -3563 -3577 -3572 -3493 -3544 -3572 -3587 -3579 -3576 -3573 -3570 -3569 -3566 -3557 -3548 -3525 -3499 -3517 -3504 -3522 -3525 -3527 -3527 -3518 -3517 -3545 -3554 -3583 -3603 -3621 -3634 -3695 -3723 -3724 -3732 -3735 -3740 -3730 -3095 -2338 -2036 -1699 -1137 -656 -195 -124 -117 -126 -127 -123 -101 -72 -31 -9999 -9999 -9999 -9999 -9999 -9999 -9999 69 15 -1 -41 -88 -81 -87 -193 -190 -151 -21 -9999 -9999 -9999 -9999 -9999 -9999 -9999 -9999 -9999 -9999 -9999 -9999 -9999 -9999 -9999 -9999 -9999 -9999 -9999 -9999 -9999 -9999 -9999 -9999 -9999 -9999 -9999 -9999 -9999 -9999 -9999 -9999 -9999 -9999 -9999 -9999 -9999 -9999 -9999 -9999 -9999 -9999 -9999 -9999 -9999 -9999 -9999 -9999 -9999 -9999 -9999 -9999 -9999 -9999 -9999 -9999 -9999 -9999 -9999 -9999 -9999 -9999 -9999 -9999 -9999 -9999 -9999 -9999 -9999 -9999 -9999 -9999 -9999 -9999 -9999 -9999 -9999 -9999 -9999 -9999 -9999 -9999 -9999 -9999 -9999 -9999 -9999 -9999 -9999 -9999 -9999 -9999 -9999 -9999 -9999 -9999 -9999 78 69 25 20 -20 -59 -52 -67 -72 -70 -70 -73 -71 -75 -78 -85 -81 -74 -55 -65 -84 -80 -82 -84 -80 -107 -92 -115 -131 -116 -118 -121 -123 -116 -85 -95 -111 -103 -104 -65 -99 -122 -126 -125 -101 -90 -86 -98 -94 -122 -118 -57 -40 -40 -89 -109 -121 -117 -156 -149 -159 -201 -147 -108 -143 -121 -98 -262 -550 -857 -1064 -1156 -1244 -1328 -1428 -1552 -1637 -1728 -1797 -1789 -1811 -1964 -1883 -1998 -2229 -2406 -2477 -2513 -2686 -2837 -3018 -3225 -3364 -3486 -3613 -3816 -4045 -4258 -4339 -4435 -4542 -4657 -4761 -4751 -4720 -4852 -5080 -4977 -4964 -5055 -5042 -5051 -5101 -5137 -5200 -5312 -5289 -5291 -5310 -5375 -5390 -5351 -5383 -5413 -5444 -5464 -5480 -5503 -5551 -5564 -5592 -5611 -5627 -5670 -5690 -5714 -5666 -5733 -5765 -5716 -5714 -5775 -5815 -5752 -5709 -5721 -5734 -5742 -5780 -5798 -5775 -5738 -5716 -5733 -5733 -5687 -5653 -5643 -5642 -5640 -5628 -5625 -5629 -5610 -5588 -5570 -5555 -5555 -5558 -5545 -5533 -5522 -5538 -5565 -5548 -5534 -9999
-9999 -3730 -3977 -3917 -3806 -3680 -3500 -3435 -3654 -3781 -3381 -3126 -3392 -3559 -3382 -3338 -3378 -3300 -3303 -3863 -3885 -3543 -3984 -3956 -3673 -3581 -3504 -3590 -3981 -3733 -3120 -2956 -2970 -2843 -2838 -2780 -2796 -2836 -2994 -3129 -3135 -3041 -2916 -2900 -3059 -3232 -3224 -3117 -2934 -3092 -3535 -3781 -3465 -3246 -3341 -3350 -3329 -3405 -3370 -3348 -3413 -3426 -3474 -3562 -3588 -3460 -3435 -3463 -3509 -3507 -3496 -3499 -3543 -3568 -3554 -3525 -3505 -3543 -3578 -3606 -3572 -3581 -3592 -3588 -3559 -3531 -3566 -3565 -3566 -3562 -3559 -3555 -3551 -3500 -3543 -3515 -3523 -3519 -3523 -3528 -3568 -3532 -3535 -3555 -3575 -3595 -3593 -3636 -3672 -3708 -3709 -3721 -3725 -3717 -3612 -2924 -2451 -2192 -1920 -1530 -859 -419 -138 -116 -116 -120 -115 -94 -52 4 -9999 -9999 -9999 -9999 -9999 -9999 -9999 99 23 -56 -92 -79 -98 -170 -171 -159 15 164 -9999 -9999 -9999 -9999 -9999 -9999 -9999 -9999 -9999 -9999 -9999 -9999 -9999 -9999 -9999 -9999 -9999 -9999 -9999 -9999 -9999 -9999 -9999 -9999 -9999 -9999 -9999 -9999 -9999 -9999 -9999 -9999 -9999 -9999 -9999 -9999 -9999 -9999 -9999 -9999 -9999 -9999 -9999 -9999 -9999 -9999 -9999 -9999 -9999 -9999 -9999 -9999 -9999 -9999 -9999 -9999 -9999 -9999 -9999 -9999 -9999 -9999 -9999 -9999 -9999 -9999 -9999 -9999 -9999 -9999 -9999 -9999 -9999 -9999 -9999 -9999 -9999 -9999 -9999 -9999 -9999 -9999 -9999 -9999 -9999 -9999 -9999 -9999 -9999 -9999 -9999 -9999 -9999 -9999 -9999 -9999 -9999 -9999 -9999 63 -3 -49 -65 -57 -60 -69 -68 -72 -85 -75 -75 -81 -76 -80 -75 -64 -73 -80 -69 -58 -73 -79 -88 -82 -108 -132 -117 -117 -109 -112 -118 -110 -107 -106 -124 -123 -98 -101 -117 -126 -114 -103 -90 -52 -114 -136 -134 -91 -82 -61 -59 -104 -138 -140 -114 -115 -139 -211 -255 -251 -162 -118 -210 -350 -677 -961 -1232 -1343 -1269 -1303 -1430 -1594 -1670 -1770 -1804 -2125 -2178 -2183 -2219 -2320 -2287 -2294 -2565 -2655 -2719 -2975 -3121 -3251 -3377 -3496 -3576 -3775 -4038 -4192 -4337 -4477 -4590 -4659 -4698 -4763 -4838 -4802 -4948 -5100 -4974 -4996 -5093 -5048 -5035 -5123 -5219 -5225 -5243 -5312 -5389 -5373 -5430 -5444 -5363 -5431 -5504 -5484 -5477 -5502 -5570 -5595 -5578 -5615 -5641 -5655 -5671 -5657 -5651 -5673 -5701 -5720 -5734 -5739 -5800 -5883 -5803 -5785 -5759 -5765 -5763 -5786 -5787 -5765 -5772 -5773 -5726 -5712 -5699 -5663 -5635 -5623 -5624 -5614 -5612 -5599 -5571 -5557 -5545 -5526 -5534 -5539 -5523 -5522 -5501 -5506 -5537 -5505 -5487 -9999
-9999 -3815 -3849 -3754 -3623 -3654 -3651 -3506 -3645 -3797 -3424 -3522 -3564 -3542 -3435 -3298 -3440 -3445 -3301 -2967 -2983 -2848 -2772 -2823 -2933 -2790 -2651 -2793 -3459 -3586 -2915 -2616 -2774 -2770 -2821 -2797 -2884 -3019 -3168 -3283 -3201 -3101 -3012 -2994 -3095 -3236 -3182 -3141 -3230 -3422 -3523 -3596 -3450 -3220 -3302 -3423 -3442 -3480 -3562 -3500 -3548 -3500 -3442 -3514 -3606 -3518 -3463 -3485 -3491 -3523 -3545 -3525 -3555 -3585 -3564 -3553 -3505 -3578 -3599 -3580 -3589 -3619 -3617 -3598 -3578 -3583 -3563 -3565 -3561 -3557 -3542 -3549 -3542 -3419 -3409 -3528 -3522 -3511 -3520 -3514 -3519 -3523 -3530 -3551 -3564 -3572 -3587 -3624 -3640 -3689 -3697 -3704 -3705 -3694 -3515 -2710 -2267 -2030 -1658 -1355 -748 -377 -144 -131 -120 -115 -102 -71 -22 -9999 -9999 -9999 -9999 -9999 -9999 -9999 50 39 15 -50 -99 -139 -124 -81 -114 -99 171 -9999 545 -9999 -9999 -9999 -9999 -9999 -9999 -9999 -9999 -9999 -9999 -9999 -9999 -9999 -9999 -9999 -9999 -9999 -9999 -9999 -9999 -9999 -9999 -9999 -9999 -9999 -9999 -9999 -9999 -9999 -9999 -9999 -9999 -9999 -9999 -9999 -9999 -9999 -9999 -9999 -9999 -9999 -9999 -9999 -9999 -9999 -9999 -9999 -9999 -9999 -9999 -9999 -9999 -9999 -9999 -9999 -9999 -9999 -9999 -9999 -9999 -9999 -9999 -9999 -9999 -9999 -9999 -9999 -9999 -9999 -9999 -9999 -9999 -9999 -9999 -9999 -9999 -9999 -9999 -9999 -9999 -9999 -9999 -9999 -9999 -9999 -9999 -9999 -9999 -9999 -9999 -9999 -9999 -9999 -9999 20 9 -3 -16 -31 -46 -56 -52 -55 -62 -68 -70 -84 -88 -83 -80 -80 -76 -49 -54 -69 -72 -74 -64 -60 -72 -93 -72 -62 -107 -133 -121 -124 -105 -95 -119 -130 -128 -127 -129 -130 -126 -90 -109 -114 -101 -115 -82 -114 -137 -125 -113 -74 -55 -37 -91 -120 -132 -138 -109 -117 -152 -241 -262 -277 -197 -104 -267 -625 -920 -1095 -1261 -1489 -1599 -1447 -1515 -1627 -1737 -1856 -1812 -2080 -2230 -2295 -2342 -2425 -2555 -2513 -2689 -2782 -3069 -3104 -3334 -3418 -3498 -3633 -3786 -3966 -4165 -4327 -4410 -4392 -4561 -4673 -4717 -4800 -4906 -4890 -4939 -5054 -5015 -4988 -5040 -5089 -5119 -5189 -5235 -5240 -5261 -5331 -5394 -5380 -5401 -5436 -5436 -5458 -5502 -5511 -5522 -5545 -5603 -5604 -5614 -5626 -5634 -5638 -5669 -5676 -5701 -5760 -5724 -5707 -5731 -5760 -5808 -5906 -5830 -5771 -5766 -5797 -5815 -5778 -5776 -5724 -5765 -5806 -5796 -5709 -5681 -5653 -5630 -5604 -5607 -5608 -5599 -5569 -5538 -5526 -5518 -5505 -5508 -5506 -5500 -5497 -5493 -5500 -5514 -5479 -5466 -9999
-9999 -3399 -3507 -3596 -3584 -3632 -3477 -3131 -3319 -3706 -3888 -3836 -3368 -2801 -2755 -2937 -3146 -3302 -3162 -2910 -2849 -2747 -2722 -2780 -2941 -2631 -2476 -2397 -2964 -3377 -2803 -2507 -2700 -2840 -2958 -2976 -3067 -3168 -3149 -3260 -3279 -3083 -2994 -2912 -3077 -3214 -3115 -3267 -3511 -3545 -3474 -3460 -3470 -3259 -3308 -3493 -3469 -3450 -3465 -3469 -3503 -3500 -3438 -3451 -3494 -3518 -3522 -3534 -3509 -3535 -3604 -3573 -3590 -3601 -3560 -3601 -3559 -3553 -3602 -3587 -3611 -3653 -3628 -3621 -3596 -3588 -3546 -3561 -3561 -3554 -3422 -3419 -3531 -3552 -3547 -3533 -3531 -3512 -3515 -3513 -3510 -3515 -3522 -3536 -3551 -3550 -3585 -3601 -3620 -3690 -3683 -3688 -3686 -3676 -3572 -3062 -2101 -1452 -1074 -791 -384 -233 -166 -145 -138 -119 -92 -52 38 -9999 -9999 -9999 -9999 -9999 -9999 -9999 33 -7 -7 -82 -98 -170 -143 -122 -138 -125 91 -9999 -9999 -9999 -9999 -9999 -9999 -9999 -9999 -9999 -9999 -9999 -9999 -9999 -9999 -9999 -9999 -9999 -9999 -9999 -9999 -9999 -9999 -9999 -9999 -9999 -9999 -9999 -9999 -9999 -9999 -9999 -9999 -9999 -9999 -9999 -9999 -9999 -9999 -9999 -9999 -9999 -9999 -9999 -9999 -9999 -9999 -9999 -9999 -9999 -9999 -9999 -9999 -9999 -9999 -9999 -9999 -9999 -9999 -9999 -9999 -9999 -9999 -9999 -9999 -9999 -9999 -9999 -9999 -9999 -9999 -9999 -9999 -9999 -9999 -9999 -9999 -9999 -9999 -9999 -9999 -9999 -9999 -9999 -9999 -9999 -9999 -9999 -9999 -9999 -9999 -9999 -9999 -9999 -9999 22 2 -21 -31 -25 -33 -41 -48 -49 -54 -58 -65 -65 -68 -87 -85 -77 -68 -76 -77 -51 -67 -74 -66 -65 -52 -70 -72 -86 -80 -66 -91 -126 -135 -114 -118 -110 -131 -135 -135 -135 -135 -131 -126 -102 -99 -114 -102 -96 -104 -133 -116 -83 -63 -63 -59 -50 -122 -171 -187 -180 -177 -196 -178 -203 -194 -121 -113 -229 -538 -871 -1070 -1228 -1381 -1554 -1678 -1587 -1628 -1684 -1795 -1949 -2029 -2114 -2236 -2313 -2329 -2426 -2445 -2399 -2536 -2770 -3058 -3325 -3512 -3637 -3797 -3892 -4005 -4186 -4222 -4326 -4350 -4347 -4492 -4635 -4717 -4790 -4876 -4948 -4966 -5015 -5033 -5103 -5130 -5130 -5103 -5142 -5210 -5262 -5295 -5350 -5371 -5359 -5398 -5413 -5456 -5470 -5494 -5536 -5565 -5580 -5593 -5607 -5609 -5661 -5675 -5647 -5667 -5750 -5807 -5766 -5726 -5730 -5758 -5781 -5796 -5819 -5841 -5858 -5823 -5791 -5793 -5785 -5758 -5734 -5802 -5748 -5764 -5660 -5664 -5658 -5648 -5621 -5594 -5581 -5572 -5543 -5527 -5515 -5505 -5492 -5484 -5488 -5473 -5466 -5470 -5483 -5489 -5470 -5450 -9999
-9999 -3769 -3965 -4007 -3869 -3702 -3439 -3206 -3145 -3273 -3411 -3341 -3142 -2942 -2963 -3096 -3307 -3462 -3379 -3209 -3212 -3140 -3022 -2988 -3024 -2847 -2645 -2551 -3018 -2858 -2721 -2426 -2618 -2869 -2926 -2975 -3134 -3259 -3165 -3168 -3198 -2956 -2858 -2754 -2951 -3161 -3086 -3346 -3417 -3277 -3238 -3202 -3478 -3214 -3248 -3480 -3482 -3440 -3405 -3315 -3410 -3424 -3372 -3476 -3496 -3571 -3558 -3505 -3472 -3504 -3584 -3613 -3608 -3646 -3632 -3617 -3584 -3570 -3603 -3596 -3611 -3622 -3617 -3615 -3589 -3587 -3565 -3561 -3561 -3556 -3555 -3551 -3546 -3553 -3556 -3545 -3545 -3526 -3515 -3506 -3514 -3536 -3513 -3527 -3534 -3545 -3569 -3577 -3614 -3658 -3666 -3703 -3692 -3648 -3574 -3115 -2057 -1351 -410 -463 -455 -291 -173 -153 -143 -129 -92 -40 20 -9999 -9999 -9999 -9999 -9999 128 -9999 117 -24 -21 -120 -152 -177 -157 -68 -29 99 -9999 -9999 -9999 -9999 -9999 -9999 -9999 -9999 -9999 -9999 -9999 -9999 -9999 -9999 -9999 -9999 -9999 -9999 -9999 -9999 -9999 -9999 -9999 -9999 -9999 -9999 -9999 -9999 -9999 -9999 -9999 -9999 -9999 -9999 -9999 -9999 -9999 -9999 -9999 -9999 -9999 -9999 -9999 -9999 -9999 -9999 -9999 -9999 -9999 -9999 -9999 -9999 -9999 -9999 -9999 -9999 -9999 -9999 -9999 -9999 -9999 -9999 -9999 -9999 -9999 -9999 -9999 -9999 -9999 -9999 -9999 -9999 -9999 -9999 -9999 -9999 -9999 -9999 -9999 -9999 -9999 -9999 -9999 -9999 -9999 -9999 -9999 -9999 -9999 -9999 -9999 -9999 -9999 -9999 4 -8 -18 -23 -29 -32 -36 -42 -48 -49 -59 -65 -68 -69 -72 -79 -78 -77 -72 -82 -78 -72 -86 -73 -69 -75 -78 -87 -75 -64 -72 -76 -72 -94 -108 -120 -145 -145 -133 -114 -132 -136 -138 -114 -90 -100 -116 -115 -99 -51 -106 -103 -100 -111 -92 -66 -92 -110 -149 -208 -243 -235 -208 -173 -164 -134 -110 -77 -170 -353 -651 -1011 -1145 -1372 -1473 -1501 -1666 -1806 -1802 -1750 -1907 -2025 -1994 -2111 -2218 -2348 -2327 -2318 -2329 -2613 -3016 -3091 -3137 -3265 -3390 -3571 -3866 -4102 -4306 -4468 -4408 -4310 -4342 -4455 -4593 -4719 -4782 -4856 -4911 -4969 -4987 -5015 -5055 -5115 -5138 -5165 -5187 -5201 -5240 -5290 -5317 -5349 -5387 -5408 -5423 -5443 -5474 -5503 -5531 -5556 -5584 -5598 -5604 -5630 -5641 -5663 -5685 -5698 -5712 -5730 -5749 -5753 -5766 -5775 -5787 -5792 -5805 -5818 -5867 -5878 -5814 -5786 -5812 -5820 -5788 -5762 -5818 -5807 -5752 -5688 -5681 -5670 -5652 -5637 -5622 -5560 -5551 -5544 -5533 -5519 -5502 -5476 -5463 -5461 -5447 -5439 -5442 -5442 -5446 -5437 -5413 -9999
-9999 -3548 -3435 -3390 -3240 -3168 -3028 -3071 -3059 -2952 -3057 -3154 -3244 -3329 -3225 -3174 -3326 -3479 -3484 -3275 -3233 -3252 -3095 -3029 -2967 -2874 -2715 -2926 -3383 -3577 -3143 -2394 -2517 -2741 -2690 -2883 -3167 -3159 -3044 -3049 -3043 -2732 -2783 -3158 -3243 -3219 -3100 -3121 -3278 -3183 -3134 -3239 -3388 -3231 -3252 -3515 -3517 -3545 -3617 -3448 -3457 -3586 -3520 -3498 -3451 -3533 -3487 -3505 -3525 -3529 -3566 -3652 -3642 -3604 -3631 -3638 -3606 -3599 -3605 -3603 -3614 -3615 -3607 -3592 -3583 -3570 -3546 -3552 -3552 -3531 -3517 -3483 -3455 -3519 -3566 -3533 -3558 -3559 -3503 -3505 -3522 -3511 -3476 -3504 -3520 -3529 -3552 -3682 -3714 -3636 -3641 -3660 -3661 -3606 -3467 -3018 -2194 -1472 -1044 -642 -382 -199 -136 -147 -162 -158 -128 -59 -45 -3 2 9 10 15 -9999 70 92 -47 -69 -142 -133 -160 -120 -26 -9999 -9999 -9999 -9999 -9999 -9999 -9999 -9999 -9999 -9999 -9999 -9999 -9999 -9999 -9999 -9999 -9999 -9999 -9999 -9999 -9999 -9999 -9999 -9999 -9999 -9999 -9999 -9999 -9999 -9999 -9999 -9999 -9999 -9999 -9999 -9999 -9999 -9999 -9999 -9999 -9999 -9999 -9999 -9999 -9999 -9999 -9999 -9999 -9999 -9999 -9999 -9999 -9999 -9999 -9999 -9999 -9999 -9999 -9999 -9999 -9999 -9999 -9999 -9999 -9999 -9999 -9999 -9999 -9999 -9999 -9999 -9999 -9999 -9999 -9999 -9999 -9999 -9999 -9999 -9999 -9999 -9999 -9999 -9999 -9999 -9999 -9999 -9999 -9999 -9999 -9999 -9999 -9999 -9999 -9999 -9999 3 -14 -22 -28 -33 -37 -41 -46 -50 -54 -63 -68 -69 -74 -80 -75 -79 -77 -78 -81 -82 -83 -81 -70 -75 -74 -75 -78 -84 -73 -54 -68 -90 -91 -98 -104 -143 -152 -148 -142 -129 -132 -140 -84 -56 -63 -89 -78 -78 -111 -120 -86 -125 -158 -173 -107 -103 -181 -205 -218 -245 -275 -218 -162 -202 -162 -106 -214 -426 -763 -1040 -1182 -1353 -1488 -1489 -1616 -1732 -1955 -2046 -1867 -1958 -2198 -2056 -2178 -2310 -2457 -2505 -2493 -2844 -3342 -3750 -4005 -3728 -3512 -3312 -3494 -3830 -3968 -4191 -4459 -4565 -4481 -4440 -4517 -4665 -4773 -4862 -4918 -4969 -5001 -5010 -5003 -5105 -5117 -5148 -5201 -5269 -5256 -5231 -5284 -5345 -5373 -5390 -5414 -5449 -5474 -5487 -5509 -5527 -5561 -5598 -5628 -5630 -5627 -5622 -5659 -5706 -5818 -5764 -5730 -5741 -5756 -5774 -5779 -5774 -5782 -5811 -5832 -5856 -5847 -5804 -5789 -5792 -5799 -5790 -5753 -5745 -5748 -5713 -5685 -5678 -5656 -5626 -5612 -5593 -5564 -5547 -5561 -5522 -5498 -5474 -5452 -5444 -5435 -5412 -5406 -5411 -5393 -5371 -5367 -5362 -9999
-9999 -3301 -3228 -3228 -3322 -3215 -2943 -3211 -3475 -3289 -3319 -3484 -3448 -3328 -3189 -3190 -3316 -3354 -3418 -3371 -3305 -3230 -3097 -3039 -2862 -2696 -2660 -2657 -3129 -3691 -3379 -2478 -2394 -2695 -2687 -2801 -2977 -2954 -2855 -2860 -3123 -3240 -3482 -3957 -3957 -3738 -3407 -3380 -3531 -3463 -3472 -3591 -3521 -3502 -3548 -3559 -3540 -3550 -3624 -3648 -3633 -3656 -3608 -3496 -3494 -3507 -3511 -3534 -3567 -3618 -3612 -3645 -3625 -3613 -3618 -3617 -3646 -3627 -3629 -3617 -3602 -3608 -3581 -3535 -3527 -3527 -3503 -3516 -3512 -3532 -3518 -3500 -3493 -3500 -3531 -3476 -3458 -3490 -3484 -3506 -3499 -3494 -3458 -3501 -3508 -3514 -3531 -3716 -3717 -3618 -3633 -3645 -3635 -3588 -3336 -2658 -1975 -1353 -685 -355 -155 -171 -162 -143 -174 -183 -179 -140 -127 -103 -56 -86 -81 -73 -47 -46 -61 -86 -107 -105 -77 -114 -150 -47 -9999 -9999 -9999 -9999 -9999 -9999 -9999 -9999 -9999 -9999 -9999 -9999 -9999 -9999 -9999 -9999 -9999 -9999 -9999 -9999 -9999 -9999 -9999 -9999 -9999 -9999 -9999 -9999 -9999 -9999 -9999 -9999 -9999 -9999 -9999 -9999 -9999 -9999 -9999 -9999 -9999 -9999 -9999 -9999 -9999 -9999 -9999 -9999 -9999 -9999 -9999 -9999 -9999 -9999 -9999 -9999 -9999 -9999 -9999 -9999 -9999 -9999 -9999 -9999 -9999 -9999 -9999 -9999 -9999 -9999 -9999 -9999 -9999 -9999 -9999 -9999 -9999 -9999 -9999 -9999 -9999 -9999 -9999 -9999 -9999 -9999 -9999 -9999 -9999 -9999 -9999 -9999 -9999 -9999 128 22 -16 -27 -32 -35 -39 -43 -48 -53 -53 -61 -68 -70 -71 -70 -73 -76 -74 -78 -76 -81 -76 -72 -75 -78 -81 -76 -77 -88 -99 -79 -60 -82 -85 -87 -96 -120 -140 -149 -148 -146 -152 -145 -129 -72 -26 -29 -58 -47 -93 -138 -140 -129 -153 -149 -152 -118 -123 -185 -207 -180 -158 -202 -184 -211 -252 -229 -144 -261 -646 -945 -1158 -1316 -1459 -1570 -1695 -1772 -1767 -1852 -1958 -2185 -2249 -2034 -2040 -2157 -2250 -2293 -2321 -2441 -2923 -3125 -3297 -3735 -4143 -3705 -3668 -3832 -4071 -4097 -4238 -4382 -4447 -4559 -4730 -4694 -4747 -4847 -4943 -4950 -5062 -5110 -5098 -5093 -5123 -5125 -5141 -5172 -5217 -5243 -5252 -5291 -5335 -5372 -5404 -5440 -5474 -5490 -5506 -5534 -5548 -5560 -5585 -5625 -5631 -5618 -5634 -5668 -5722 -5836 -5782 -5742 -5754 -5766 -5780 -5789 -5779 -5793 -5827 -5835 -5825 -5818 -5793 -5780 -5779 -5792 -5788 -5751 -5733 -5723 -5698 -5674 -5667 -5646 -5608 -5589 -5574 -5546 -5528 -5519 -5495 -5470 -5439 -5421 -5409 -5393 -5369 -5363 -5361 -5350 -5322 -5312 -5330 -9999
-9999 -3493 -3513 -3411 -3455 -3468 -3284 -3460 -3647 -3421 -3409 -3594 -3644 -3486 -3212 -3171 -3281 -3259 -3320 -3409 -3341 -3241 -3075 -2995 -2924 -2905 -2818 -2664 -2826 -3303 -3559 -2942 -2487 -2665 -2792 -2792 -2698 -2753 -2857 -2800 -3214 -3670 -3632 -3510 -3455 -3362 -3199 -3384 -3615 -3562 -3542 -3598 -3544 -3560 -3640 -3518 -3502 -3461 -3398 -3456 -3478 -3448 -3566 -3524 -3563 -3582 -3578 -3551 -3554 -3626 -3620 -3639 -3595 -3635 -3640 -3617 -3694 -3653 -3609 -3597 -3600 -3598 -3533 -3520 -3505 -3500 -3470 -3483 -3515 -3511 -3513 -3518 -3534 -3488 -3460 -3473 -3488 -3510 -3562 -3636 -3525 -3494 -3462 -3482 -3493 -3503 -3521 -3580 -3599 -3607 -3631 -3635 -3637 -3561 -3060 -2378 -1770 -739 -370 -154 -146 -148 -89 -31 13 -73 -171 -197 -190 -189 -187 -168 -156 -157 -149 -138 -122 -139 -130 -106 -79 -71 -145 -130 31 -9999 -9999 -9999 -9999 -9999 -9999 -9999 -9999 -9999 -9999 -9999 -9999 -9999 -9999 -9999 -9999 -9999 -9999 -9999 -9999 -9999 -9999 -9999 -9999 -9999 -9999 -9999 -9999 -9999 -9999 -9999 -9999 -9999 -9999 -9999 -9999 -9999 -9999 -9999 -9999 -9999 -9999 -9999 -9999 -9999 -9999 -9999 -9999 -9999 -9999 -9999 -9999 -9999 -9999 -9999 -9999 -9999 -9999 -9999 -9999 -9999 -9999 -9999 -9999 -9999 -9999 -9999 -9999 -9999 -9999 -9999 -9999 -9999 -9999 -9999 -9999 -9999 -9999 -9999 -9999 -9999 -9999 -9999 -9999 -9999 -9999 -9999 -9999 -9999 -9999 -9999 -9999 194 57 -24 -35 -37 -38 -43 -45 -47 -52 -55 -56 -65 -70 -71 -71 -73 -78 -78 -71 -57 -67 -77 -76 -71 -69 -77 -91 -92 -88 -86 -87 -72 -75 -85 -93 -64 -83 -124 -143 -148 -133 -128 -148 -126 -124 -111 -52 -33 -43 -36 -67 -124 -140 -130 -130 -125 -113 -113 -101 -101 -121 -91 -55 -105 -205 -308 -350 -316 -337 -561 -934 -1148 -1229 -1377 -1532 -1654 -1687 -1845 -1931 -1931 -1835 -1904 -2136 -2256 -2235 -2175 -2226 -2292 -2430 -2859 -3160 -3049 -3395 -3313 -3667 -3794 -3926 -4391 -4654 -4623 -4520 -4561 -4548 -4639 -4868 -4938 -4874 -4894 -4991 -4948 -5005 -5124 -5139 -5123 -5155 -5156 -5169 -5176 -5188 -5264 -5302 -5313 -5343 -5390 -5417 -5469 -5513 -5465 -5488 -5534 -5562 -5587 -5606 -5623 -5635 -5651 -5664 -5678 -5704 -5737 -5752 -5767 -5782 -5778 -5785 -5802 -5812 -5822 -5835 -5828 -5817 -5809 -5807 -5808 -5803 -5797 -5786 -5759 -5737 -5717 -5695 -5670 -5652 -5635 -5603 -5598 -5568 -5546 -5521 -5498 -5479 -5463 -5436 -5408 -5386 -5368 -5350 -5336 -5329 -5326 -5306 -5260 -5253 -9999
-9999 -3618 -3586 -3617 -3648 -3596 -3495 -3431 -3465 -3403 -3331 -3400 -3574 -3628 -3401 -3228 -3178 -3206 -3434 -3495 -3328 -3235 -3104 -3089 -3025 -3001 -2866 -2631 -2488 -2616 -3250 -3261 -2578 -2406 -2504 -2597 -2652 -2952 -3316 -3234 -3286 -3420 -3283 -3076 -3017 -2980 -2931 -3072 -3213 -3140 -3223 -3468 -3409 -3360 -3510 -3566 -3476 -3397 -3358 -3365 -3477 -3496 -3454 -3486 -3616 -3625 -3583 -3572 -3585 -3637 -3637 -3636 -3599 -3591 -3577 -3567 -3633 -3645 -3583 -3576 -3561 -3570 -3556 -3537 -3503 -3473 -3446 -3457 -3525 -3530 -3529 -3522 -3491 -3466 -3524 -3552 -3491 -3488 -3551 -3575 -3507 -3487 -3481 -3471 -3477 -3487 -3506 -3516 -3550 -3602 -3617 -3625 -3604 -3283 -2839 -2341 -1648 -876 -399 -270 -178 -152 -78 87 121 97 -79 -161 -199 -207 -204 -190 -189 -176 -183 -186 -179 -169 -153 -129 -77 -52 -100 -166 -75 -23 136 -9999 -9999 -9999 -9999 -9999 -9999 -9999 -9999 -9999 -9999 -9999 -9999 -9999 -9999 -9999 -9999 -9999 -9999 -9999 -9999 -9999 -9999 -9999 -9999 -9999 -9999 -9999 -9999 -9999 -9999 -9999 -9999 -9999 -9999 -9999 -9999 -9999 -9999 -9999 -9999 -9999 -9999 -9999 -9999 -9999 -9999 -9999 -9999 -9999 -9999 -9999 -9999 -9999 -9999 -9999 -9999 -9999 -9999 -9999 -9999 -9999 -9999 -9999 -9999 -9999 -9999 -9999 -9999 -9999 -9999 -9999 -9999 -9999 -9999 -9999 -9999 -9999 -9999 -9999 -9999 -9999 -9999 -9999 -9999 -9999 -9999 -9999 -9999 -9999 -9999 17 -37 -43 -45 -43 -46 -51 -53 -52 -58 -60 -59 -66 -70 -71 -72 -76 -71 -69 -55 -38 -61 -74 -63 -65 -68 -81 -96 -97 -90 -85 -84 -64 -68 -90 -91 -86 -104 -118 -139 -151 -153 -148 -147 -140 -122 -99 -47 -27 -44 -53 -66 -127 -130 -127 -119 -108 -105 -124 -120 -84 -107 -84 -89 -169 -265 -367 -444 -458 -586 -837 -1093 -1240 -1332 -1472 -1597 -1697 -1809 -1877 -1935 -2058 -2131 -1980 -2059 -2340 -2540 -2703 -2659 -2912 -3101 -3417 -3132 -3067 -3212 -3245 -3552 -3610 -3754 -4011 -4274 -4444 -4426 -4591 -4643 -4659 -4827 -4949 -4934 -4977 -5051 -5055 -5088 -5120 -5176 -5176 -5190 -5180 -5226 -5228 -5218 -5239 -5296 -5329 -5389 -5420 -5433 -5459 -5477 -5444 -5482 -5527 -5528 -5588 -5618 -5627 -5630 -5653 -5674 -5698 -5710 -5730 -5751 -5767 -5782 -5789 -5798 -5817 -5828 -5833 -5837 -5832 -5819 -5825 -5837 -5836 -5815 -5797 -5788 -5770 -5740 -5715 -5692 -5662 -5636 -5617 -5606 -5593 -5575 -5557 -5531 -5509 -5482 -5463 -5440 -5411 -5389 -5372 -5345 -5310 -5301 -5305 -5281 -5252 -5241 -9999
-9999 -3621 -3556 -3592 -3699 -3617 -3496 -3275 -3266 -3357 -3324 -3368 -3351 -3347 -3405 -3386 -3284 -3322 -3543 -3585 -3440 -3292 -3263 -3209 -3167 -3097 -2882 -2650 -2544 -2602 -3205 -3455 -2620 -2200 -2558 -2968 -3098 -3246 -3304 -3234 -3193 -3137 -3124 -3004 -2860 -2882 -2932 -3038 -3237 -3171 -3092 -3259 -3280 -3199 -3355 -3526 -3416 -3308 -3410 -3560 -3568 -3572 -3469 -3429 -3549 -3612 -3549 -3537 -3565 -3616 -3623 -3638 -3636 -3601 -3541 -3542 -3553 -3562 -3561 -3548 -3494 -3504 -3528 -3510 -3501 -3491 -3490 -3514 -3538 -3534 -3529 -3528 -3490 -3440 -3532 -3575 -3488 -3522 -3572 -3513 -3498 -3483 -3483 -3473 -3470 -3479 -3490 -3505 -3568 -3593 -3602 -3609 -3467 -2873 -2426 -1828 -1395 -1039 -905 -760 -323 -201 -127 -95 -135 -177 -190 -188 -206 -226 -235 -228 -200 -204 -212 -206 -164 -155 -143 -107 -90 -78 -103 -175 -54 345 419 396 -9999 -9999 -9999 -9999 -9999 -9999 -9999 -9999 -9999 -9999 -9999 -9999 -9999 -9999 -9999 -9999 -9999 -9999 -9999 -9999 -9999 -9999 -9999 -9999 -9999 -9999 -9999 -9999 -9999 -9999 -9999 -9999 -9999 -9999 -9999 -9999 -9999 -9999 -9999 -9999 -9999 -9999 -9999 -9999 -9999 -9999 -9999 -9999 -9999 -9999 -9999 -9999 -9999 -9999 -9999 -9999 -9999 -9999 -9999 -9999 -9999 -9999 -9999 -9999 -9999 -9999 -9999 -9999 -9999 -9999 -9999 -9999 -9999 -9999 -9999 -9999 -9999 -9999 -9999 -9999 -9999 -9999 -9999 -9999 -9999 -9999 -9999 -9999 96 -32 -44 -50 -51 -52 -54 -58 -58 -58 -63 -67 -67 -63 -69 -73 -76 -81 -80 -75 -68 -57 -58 -61 -69 -69 -72 -80 -84 -92 -95 -98 -92 -99 -94 -85 -79 -110 -127 -133 -145 -154 -155 -131 -144 -153 -128 -80 -60 -51 -71 -109 -98 -102 -104 -121 -102 -99 -112 -119 -168 -162 -173 -176 -144 -285 -392 -385 -460 -517 -692 -951 -1130 -1270 -1455 -1621 -1677 -1889 -1917 -2030 -2084 -2237 -2373 -2363 -2378 -2561 -2716 -2975 -3097 -2785 -2722 -2747 -2882 -3180 -3324 -3497 -3513 -3577 -3662 -3797 -4194 -4389 -4381 -4544 -4594 -4654 -4847 -4970 -4974 -5041 -5137 -5129 -5097 -5133 -5178 -5208 -5200 -5204 -5246 -5260 -5283 -5281 -5333 -5365 -5515 -5516 -5449 -5463 -5482 -5501 -5512 -5544 -5570 -5603 -5598 -5605 -5645 -5658 -5670 -5692 -5701 -5715 -5736 -5748 -5767 -5791 -5808 -5817 -5822 -5832 -5840 -5845 -5843 -5852 -5855 -5843 -5818 -5799 -5788 -5770 -5739 -5712 -5687 -5671 -5649 -5629 -5617 -5599 -5583 -5567 -5539 -5518 -5506 -5480 -5451 -5427 -5413 -5396 -5354 -5310 -5298 -5286 -5244 -5236 -5242 -9999
-9999 -3691 -3693 -3550 -3649 -3707 -3642 -3467 -3547 -3645 -3536 -3576 -3452 -3257 -3428 -3622 -3637 -3678 -3561 -3251 -3070 -3371 -3412 -3456 -3461 -3321 -3172 -3052 -3052 -3190 -3506 -3640 -2839 -2473 -3021 -3214 -3034 -3021 -3021 -2962 -2972 -3043 -3141 -3133 -3008 -3064 -3122 -3143 -3255 -3120 -3044 -3204 -3355 -3320 -3370 -3559 -3589 -3486 -3545 -3617 -3659 -3622 -3586 -3500 -3513 -3640 -3622 -3613 -3575 -3634 -3650 -3627 -3602 -3611 -3588 -3572 -3543 -3563 -3543 -3496 -3467 -3497 -3525 -3541 -3535 -3528 -3500 -3517 -3545 -3539 -3531 -3527 -3523 -3503 -3580 -3620 -3493 -3499 -3572 -3504 -3483 -3482 -3476 -3465 -3450 -3435 -3498 -3522 -3542 -3571 -3584 -3577 -3380 -2508 -2092 -1464 -1192 -1020 -876 -766 -518 -314 -171 -167 -154 -124 -135 -172 -196 -200 -158 -70 -4 -53 -8 -83 -172 -169 -167 -155 -128 -134 -150 -170 -108 13 261 -9999 -9999 -9999 -9999 -9999 -9999 -9999 -9999 -9999 -9999 -9999 -9999 -9999 -9999 -9999 -9999 -9999 -9999 -9999 -9999 -9999 -9999 -9999 -9999 -9999 -9999 -9999 -9999 -9999 -9999 -9999 -9999 -9999 -9999 -9999 -9999 -9999 -9999 -9999 -9999 -9999 -9999 -9999 -9999 -9999 -9999 -9999 -9999 -9999 -9999 -9999 -9999 -9999 -9999 -9999 -9999 -9999 -9999 -9999 -9999 -9999 -9999 -9999 -9999 -9999 -9999 -9999 -9999 -9999 -9999 -9999 -9999 -9999 -9999 -9999 -9999 -9999 -9999 -9999 -9999 -9999 -9999 -9999 -9999 -9999 -9999 -9999 -9999 -9999 132 -20 -48 -56 -57 -60 -62 -68 -67 -63 -68 -74 -70 -67 -71 -74 -74 -74 -75 -74 -70 -71 -71 -61 -66 -71 -71 -66 -72 -82 -92 -106 -101 -87 -92 -90 -94 -116 -132 -137 -151 -155 -146 -141 -150 -156 -170 -112 -82 -102 -108 -139 -148 -108 -89 -112 -73 -34 -84 -119 -202 -215 -252 -310 -301 -349 -356 -251 -343 -573 -788 -1024 -1181 -1310 -1481 -1607 -1648 -1868 -1961 -2002 -2168 -2273 -2379 -2295 -2230 -2211 -2417 -2669 -2536 -2305 -2400 -2618 -2905 -3136 -3156 -3397 -3489 -3731 -3951 -4094 -4183 -4185 -4359 -4572 -4684 -4786 -4882 -4964 -5003 -5062 -5106 -5100 -5075 -5127 -5164 -5194 -5238 -5220 -5209 -5251 -5270 -5233 -5275 -5375 -5456 -5468 -5440 -5473 -5496 -5507 -5527 -5554 -5583 -5596 -5602 -5614 -5635 -5649 -5674 -5692 -5694 -5718 -5744 -5758 -5762 -5791 -5792 -5804 -5822 -5837 -5849 -5849 -5872 -5882 -5882 -5865 -5836 -5818 -5797 -5766 -5732 -5709 -5690 -5689 -5668 -5643 -5635 -5613 -5591 -5575 -5555 -5537 -5532 -5517 -5473 -5448 -5425 -5402 -5372 -5335 -5312 -5282 -5263 -5261 -5233 -9999
